ply
format ascii 1.0
element vertex 1254
property float x
property float y
property float z
property uchar red
property uchar green
property uchar blue
end_header
0.697050 0.661074 -0.374961 30 42 32
0.721035 -0.604110 -0.397947 45 53 40
-0.010493 0.466199 -0.376051 37 49 35
0.307302 -0.712041 -0.386422 41 48 39
0.688056 -0.373259 -0.376159 50 63 46
0.085445 -0.616103 -0.402197 40 47 35
0.676064 -0.235348 -0.393845 60 73 56
0.352273 -0.193375 -0.366491 56 70 53
0.046470 0.769004 -0.376838 34 46 36
0.643085 -0.037476 -0.370429 55 67 53
-0.652079 -0.166393 -0.390762 61 75 58
-0.529159 -0.118424 -0.363973 54 67 50
0.001499 -0.166393 -0.395967 54 62 49
0.280319 0.661074 -0.366311 34 46 35
-0.622099 -0.223356 -0.365175 55 68 51
-0.181383 -0.631093 -0.402227 42 50 37
0.205368 0.448211 -0.360576 38 50 36
0.148404 0.169391 -0.384104 255 255 255
0.475193 -0.286315 -0.396528 54 67 50
0.412234 -0.229352 -0.381494 53 66 49
0.154400 0.763008 -0.370072 34 46 36
0.400242 -0.769004 -0.376704 40 48 35
-0.085445 0.352273 -0.370243 38 48 35
0.721035 -0.514168 -0.371853 48 57 43
0.373259 0.418230 -0.373288 44 52 39
0.361267 0.538153 -0.391293 37 49 35
0.646083 -0.097437 -0.359645 70 83 66
-0.682060 -0.556141 -0.395038 45 53 40
0.688056 0.481190 -0.358633 36 48 35
0.754013 0.385251 -0.378768 41 53 39
0.031480 0.079449 -0.403770 96 111 88
-0.694052 -0.457205 -0.369552 46 58 44
-0.496180 0.262331 -0.373898 46 53 45
0.661073 0.424226 -0.394021 37 49 35
0.145406 0.370261 -0.382039 44 52 39
-0.481190 0.364265 -0.403156 38 50 36
-0.256335 0.736025 -0.395417 30 42 32
0.076451 0.418230 -0.388080 39 48 35
-0.163395 0.517166 -0.357613 38 45 34
0.739023 0.235348 -0.407818 46 54 41
-0.061460 0.601112 -0.395965 35 47 33
-0.202369 -0.202369 -0.365833 55 68 51
0.343278 0.355271 -0.389392 41 49 36
0.403240 -0.292311 -0.386070 52 65 48
-0.310300 -0.628095 -0.384970 41 49 36
-0.523162 -0.325290 -0.378983 49 61 47
0.436219 -0.088443 -0.380561 52 64 49
-0.256335 -0.367263 -0.395964 46 54 41
-0.724033 0.310300 -0.387568 37 49 35
-0.592118 0.622099 -0.378750 30 42 32
-0.439217 0.136412 -0.374053 255 255 255
0.706044 0.298308 -0.378267 42 54 40
0.592118 -0.403240 -0.382369 54 66 52
-0.676064 -0.352273 -0.385638 45 57 43
-0.064458 0.556141 -0.366010 36 48 34
0.565135 0.010493 -0.375077 72 88 69
0.760010 0.151402 -0.365689 44 51 43
-0.433220 0.169391 -0.380210 255 255 255
0.361267 -0.418230 -0.396935 47 53 41
0.052466 0.655077 -0.367586 37 49 36
-0.451209 0.604110 -0.372220 35 47 37
0.466199 0.451209 -0.372364 38 50 36
-0.634091 0.244342 -0.382202 43 51 38
-0.406238 -0.385251 -0.371419 45 57 43
-0.298308 0.742021 -0.388586 34 46 36
-0.742021 -0.613104 -0.366596 44 56 42
0.472195 0.241344 -0.363883 40 52 38
-0.262331 -0.472195 -0.365895 44 52 39
-0.379255 0.160397 -0.359280 255 255 255
0.319294 -0.715039 -0.369816 42 50 37
-0.373259 0.658075 -0.402650 37 49 39
-0.172389 0.232350 -0.402645 40 52 38
-0.088443 -0.757012 -0.402602 39 46 38
0.103433 0.733027 -0.349696 34 46 36
0.460203 0.736025 -0.359770 37 49 40
-0.730029 0.277321 -0.401419 40 48 35
-0.445213 -0.532157 -0.351381 45 53 40
0.259333 -0.559139 -0.387157 46 54 41
0.505174 0.142408 -0.384013 41 48 40
0.598114 0.679062 -0.366860 30 42 32
0.577128 0.571132 -0.356502 27 39 29
0.502176 -0.280319 -0.387116 57 70 53
0.739023 0.337282 -0.360796 41 52 38
0.703046 0.226354 -0.365804 43 54 40
0.598114 -0.739023 -0.377121 45 53 40
0.766006 0.442215 -0.393686 40 52 38
-0.475193 -0.268327 -0.399152 48 60 46
-0.436219 0.607108 -0.401172 34 46 32
0.391248 -0.553143 -0.352653 45 53 40
-0.073453 0.259333 -0.369198 41 52 41
-0.007495 0.193375 -0.384224 44 52 40
-0.082447 0.052466 -0.392956 66 81 62
0.385251 0.016489 -0.374541 75 91 73
0.328288 0.247340 -0.368423 43 51 38
0.760010 0.106431 -0.344642 43 50 42
0.358269 0.601112 -0.391939 33 45 35
0.700048 0.397244 -0.350412 38 50 36
-0.154400 0.583124 -0.373715 38 46 33
-0.499178 0.604110 -0.388672 36 48 34
-0.655077 0.016489 -0.375139 61 74 57
0.082447 -0.520164 -0.405762 46 54 41
-0.376257 -0.742021 -0.397676 41 49 36
-0.163395 0.220358 -0.380566 40 52 38
0.451209 0.610106 -0.389025 34 47 31
-0.682060 0.124420 -0.387512 34 41 33
-0.325290 0.376257 -0.416609 38 50 36
-0.373259 0.580126 -0.387291 34 47 37
-0.340280 0.343279 -0.366455 41 53 39
0.226354 -0.544149 -0.403291 47 55 42
0.262331 -0.373259 -0.360179 46 53 40
-0.292311 0.139410 -0.402557 51 52 54
0.037476 -0.622099 -0.388043 41 48 36
0.682060 -0.205368 -0.384366 60 73 56
0.286315 0.679062 -0.409544 34 46 36
-0.133414 0.706044 -0.367064 35 47 37
-0.529159 -0.349275 -0.367303 44 56 43
-0.448211 0.766006 -0.379167 39 51 41
-0.391248 -0.088443 -0.354516 54 67 50
0.565135 -0.205368 -0.387716 57 70 53
-0.706044 0.757012 -0.383087 36 43 35
0.589120 -0.382253 -0.389896 51 63 49
-0.121422 -0.040474 -0.370256 63 77 58
-0.598114 -0.739023 -0.406712 41 48 40
-0.775000 -0.664072 -0.356213 44 56 42
-0.355271 -0.400242 -0.378946 48 56 43
0.550145 -0.697050 -0.368013 48 60 46
0.682060 -0.490184 -0.393933 50 58 45
0.742021 -0.553143 -0.375294 49 58 44
-0.226354 -0.070455 -0.338237 62 76 58
-0.451209 -0.166393 -0.383989 51 60 47
-0.115426 0.058462 -0.389822 66 81 62
-0.343279 -0.190377 -0.395102 57 70 53
-0.592118 0.190377 -0.400051 42 47 41
-0.283317 0.169391 -0.392202 255 255 255
-0.214362 -0.421228 -0.372252 45 53 39
-0.103433 0.409236 -0.390619 36 48 34
-0.100435 0.109429 -0.378050 55 70 53
0.760010 0.667070 -0.401619 35 47 37
0.445213 -0.361267 -0.372805 49 61 47
0.700048 0.355271 -0.370313 40 52 38
-0.652079 0.427224 -0.399677 37 49 35
0.073453 0.490184 -0.356777 36 48 34
-0.691054 0.061460 -0.391225 44 52 39
0.427224 -0.553143 -0.370772 47 57 44
0.121422 0.382253 -0.377422 40 52 38
-0.169391 -0.223356 -0.338489 54 67 50
-0.184381 -0.469197 -0.343262 44 52 39
-0.070455 -0.760010 -0.394562 38 46 34
0.430222 0.727031 -0.374392 37 49 39
-0.649081 -0.364265 -0.379749 49 61 47
-0.526161 0.205368 -0.390267 40 45 39
0.334284 0.514168 -0.377431 37 49 35
-0.595116 0.136412 -0.409775 255 255 255
0.382253 0.718037 -0.381854 35 47 37
0.640087 -0.187379 -0.377702 63 76 59
0.028482 -0.628095 -0.379662 44 49 38
-0.121422 0.442215 -0.392897 37 49 35
-0.760010 -0.106431 -0.401774 75 90 71
-0.148404 -0.376257 -0.372387 46 52 40
0.034478 -0.463201 -0.390381 44 52 39
0.667070 0.385251 -0.363387 38 50 36
0.631093 0.379255 -0.411950 38 50 36
0.646083 0.589120 -0.374131 34 46 32
0.610106 -0.508172 -0.373908 47 59 45
0.109429 -0.538153 -0.379227 46 54 41
0.292311 0.562137 -0.387448 36 48 34
-0.412234 -0.028482 -0.365154 72 82 65
-0.598114 0.442215 -0.394934 37 49 35
-0.229352 0.445213 -0.379568 34 41 34
-0.457205 0.601112 -0.374801 35 47 37
-0.148404 0.082447 -0.405836 65 80 61
-0.505174 0.649081 -0.386789 38 50 40
0.616103 0.172389 -0.400994 43 50 42
0.301306 -0.484188 -0.384820 44 52 39
0.055464 0.655077 -0.351354 37 49 35
-0.568133 -0.457205 -0.380761 43 56 40
-0.103433 0.292311 -0.414369 42 51 42
-0.433220 0.700048 -0.384082 35 47 37
-0.055464 0.523162 -0.352676 37 49 35
-0.127418 -0.328288 -0.367651 42 48 34
0.571132 0.358269 -0.388926 40 52 38
-0.490184 -0.160397 -0.401626 53 68 49
-0.601112 0.178385 -0.402721 43 43 39
0.553143 0.322292 -0.397091 38 50 36
-0.274323 0.157398 -0.376769 255 255 255
0.607108 -0.394246 -0.379874 49 61 48
0.484188 0.520164 -0.370815 36 48 34
0.502176 0.745019 -0.393133 43 55 41
-0.766006 0.202369 -0.370869 38 50 36
-0.226354 -0.028482 -0.389212 64 79 60
-0.328288 -0.664072 -0.374584 43 51 38
-0.679062 0.157398 -0.384441 36 43 35
-0.412234 0.046470 -0.398963 51 66 49
0.667070 -0.340280 -0.381587 52 65 48
0.403240 -0.100435 -0.351429 60 72 56
-0.673066 0.187379 -0.360713 37 44 36
0.601112 -0.496180 -0.370017 50 58 45
0.115426 0.652079 -0.395358 34 46 36
0.535155 -0.775000 -0.391504 41 49 36
-0.526161 -0.472195 -0.374314 47 59 45
0.565135 0.325290 -0.370764 38 50 36
-0.628095 0.574130 -0.383627 10 14 10
-0.412234 0.586122 -0.353384 34 46 36
-0.688056 -0.505174 -0.379331 42 54 40
0.772002 -0.334284 -0.372033 46 58 48
-0.364265 0.700048 -0.374294 37 49 39
0.535155 -0.004497 -0.384028 133 150 125
0.496180 -0.283317 -0.370988 60 73 55
0.586122 0.388250 -0.414786 38 50 36
0.190377 0.697050 -0.370754 36 43 35
-0.748017 0.682060 -0.386136 34 46 36
0.517166 0.046470 -0.367649 40 46 38
-0.145406 0.169391 -0.383325 44 52 41
0.649081 -0.670068 -0.393705 46 54 41
0.508172 -0.256335 -0.370357 57 69 55
-0.424226 0.478191 -0.372111 38 50 36
-0.763008 -0.241344 -0.391511 59 74 55
-0.400242 -0.466199 -0.367009 44 56 42
0.493182 0.460203 -0.376013 37 49 35
0.244342 0.565135 -0.366609 35 43 35
0.640087 -0.502176 -0.388528 48 60 46
-0.703046 0.265329 -0.370906 39 48 35
-0.304304 -0.268327 -0.379204 47 59 45
0.067457 -0.769004 -0.377054 39 47 34
-0.160397 0.508172 -0.405455 38 46 32
-0.088443 0.340280 -0.371380 37 49 35
0.055464 0.022485 -0.384285 80 93 73
0.742021 -0.586122 -0.374627 49 57 44
0.538153 0.661074 -0.367141 33 45 35
0.226354 0.439217 -0.360164 38 50 36
0.367263 -0.373259 -0.385731 52 60 47
-0.583124 0.418230 -0.374489 36 43 35
0.496180 -0.772002 -0.410202 39 46 38
0.121422 -0.754013 -0.372309 39 47 34
-0.385251 0.022485 -0.361310 92 107 87
0.538153 -0.238346 -0.372703 53 66 49
0.721035 0.484188 -0.404889 37 49 35
-0.469197 0.502176 -0.364714 36 48 34
-0.706044 0.319294 -0.385271 37 49 35
-0.367263 0.454207 -0.389647 37 49 35
-0.637089 -0.763008 -0.385868 43 51 39
0.220358 -0.304304 -0.405444 55 63 50
-0.592118 0.577128 -0.376504 33 40 32
-0.682060 -0.460203 -0.375366 52 64 49
-0.217360 0.700048 -0.391560 32 39 31
0.316296 0.277321 -0.375349 43 51 38
0.397244 0.136412 -0.372204 31 36 30
0.445213 0.313298 -0.373581 43 51 38
-0.139410 -0.523162 -0.370422 42 50 37
0.349275 0.727031 -0.385215 36 48 38
0.727031 -0.367263 -0.365537 57 70 53
0.532157 -0.361267 -0.375969 50 62 48
0.769004 -0.637089 -0.388919 50 58 45
-0.031480 0.229352 -0.384752 41 48 40
0.280319 0.661074 -0.345819 34 46 35
0.691054 -0.400242 -0.372830 49 62 47
-0.148404 0.601112 -0.376063 35 47 37
0.742021 -0.334284 -0.373873 48 60 46
-0.376257 -0.142408 -0.376989 75 90 71
-0.175387 0.331286 -0.362839 43 51 38
-0.307302 -0.454207 -0.377490 45 53 40
-0.040474 -0.580126 -0.379067 44 52 39
-0.775000 -0.133414 -0.369493 48 60 46
0.475193 -0.040474 -0.375747 50 62 46
-0.007495 -0.397244 -0.386463 45 51 39
-0.235348 0.238346 -0.397510 34 41 34
-0.124420 0.343279 -0.403105 37 49 35
-0.172389 -0.232350 -0.385652 54 67 50
0.520164 -0.034478 -0.374501 59 72 54
0.613104 -0.628095 -0.374694 47 55 42
-0.580126 -0.547147 -0.398268 47 55 42
-0.232350 -0.688056 -0.355802 41 49 36
0.277321 0.727031 -0.376304 35 47 37
-0.190377 -0.445213 -0.371560 49 57 42
-0.718037 -0.475193 -0.395894 42 54 40
-0.193375 -0.487186 -0.386922 44 52 39
-0.199371 0.607108 -0.378687 14 15 13
-0.034478 -0.100435 -0.378950 57 70 53
0.151402 0.154400 -0.373555 255 255 255
-0.190377 -0.367263 -0.362261 44 52 39
-0.742021 0.538153 -0.380580 36 48 38
-0.133414 -0.067457 -0.401990 61 75 56
-0.526161 -0.313298 -0.378413 51 63 49
-0.340280 0.508172 -0.383540 37 49 35
0.619101 0.592118 -0.355185 34 46 34
-0.349275 0.241344 -0.366416 31 39 31
-0.109429 -0.172389 -0.381212 55 69 52
-0.058462 0.643085 -0.390607 39 45 33
0.169391 -0.451209 -0.372712 45 52 39
-0.667070 0.385251 -0.377778 40 49 36
-0.253337 -0.487186 -0.385189 56 64 49
-0.328288 0.724033 -0.382326 34 46 36
-0.223356 0.736025 -0.387825 33 45 34
-0.067456 0.742021 -0.377974 33 43 34
0.352273 -0.007495 -0.349165 63 76 58
0.649081 -0.076451 -0.386813 60 73 55
0.505174 -0.757012 -0.370834 42 50 36
-0.208366 -0.436219 -0.377596 45 53 40
-0.520164 0.283317 -0.384956 43 55 41
0.025484 0.679062 -0.385370 35 47 33
-0.049468 -0.037476 -0.382530 64 77 59
-0.091441 0.085445 -0.385728 65 80 61
-0.400242 0.265329 -0.383709 43 50 42
-0.325290 -0.112427 -0.396627 51 64 47
0.478192 0.538153 -0.396487 36 48 34
-0.430222 -0.760010 -0.355042 41 49 36
0.595116 -0.172389 -0.384160 56 69 52
-0.427224 0.127418 -0.393382 255 255 255
0.181383 0.313298 -0.385232 44 52 39
0.088443 -0.511170 -0.392789 46 54 41
0.598114 -0.223356 -0.365029 63 76 59
-0.718037 -0.190377 -0.363077 63 78 59
-0.199371 -0.217360 -0.379582 53 66 49
0.652079 -0.484188 -0.399511 50 58 45
-0.316296 0.742021 -0.371175 33 45 35
0.562137 0.220358 -0.363716 41 53 39
-0.262331 0.646083 -0.366201 34 46 36
-0.493182 0.223356 -0.368120 34 41 33
0.277321 -0.616103 -0.385156 44 52 39
-0.559139 -0.523162 -0.395829 44 56 42
-0.214362 0.268327 -0.369298 41 49 37
-0.616103 0.274323 -0.381224 43 50 42
0.421228 -0.100435 -0.359362 67 80 62
-0.397244 0.022485 -0.378761 90 105 84
-0.622099 0.391248 -0.393977 40 51 39
-0.046470 0.331286 -0.385402 37 49 35
0.322292 -0.490184 -0.357409 44 52 39
0.601112 -0.394246 -0.373274 52 65 49
0.721035 0.478191 -0.390432 37 49 35
0.562137 0.520164 -0.373662 26 27 23
-0.637089 0.157398 -0.370033 38 43 37
-0.277321 -0.652079 -0.363613 43 51 37
0.334284 0.202369 -0.380330 46 52 44
0.484188 0.310300 -0.374015 40 52 38
-0.208366 0.226354 -0.387164 41 49 36
-0.244342 -0.469197 -0.384466 44 52 39
-0.649081 0.415232 -0.387702 37 49 35
-0.121422 0.091441 -0.381749 59 74 56
-0.616103 -0.565135 -0.387923 43 55 41
0.637089 0.364265 -0.381008 38 50 36
0.355271 -0.592118 -0.379502 45 53 40
0.622099 -0.181383 -0.379454 63 76 59
-0.661074 0.067456 -0.389150 44 51 43
0.253337 -0.466199 -0.364431 47 55 42
0.592118 0.115426 -0.362882 132 129 128
0.478192 -0.484188 -0.376334 50 58 45
-0.331286 0.136412 -0.404723 205 213 219
-0.460203 0.313298 -0.368732 44 52 39
-0.757012 -0.418230 -0.382354 50 63 46
-0.451209 0.094439 -0.352746 63 71 55
0.595116 0.766006 -0.390124 30 42 32
-0.154400 0.346277 -0.381692 37 49 35
0.478192 -0.589120 -0.380389 48 56 43
-0.565135 -0.202369 -0.374892 53 66 51
0.709043 0.196373 -0.378562 44 52 38
-0.418230 0.076451 -0.403410 167 186 152
0.625097 0.610106 -0.379840 34 46 36
-0.178385 -0.451209 -0.367029 47 55 42
0.373259 -0.676064 -0.363167 49 57 44
-0.565135 -0.139410 -0.392496 58 73 55
0.169391 0.610106 -0.367681 34 42 29
-0.475193 0.352273 -0.385736 40 52 38
0.397244 -0.007495 -0.408527 70 78 63
0.355271 -0.313298 -0.377808 46 53 40
-0.238346 0.172389 -0.388585 45 52 45
-0.364265 0.439217 -0.403886 42 52 38
-0.409236 -0.451209 -0.372350 51 63 52
0.499178 -0.274323 -0.389487 60 73 56
0.589120 -0.160397 -0.363087 63 76 59
-0.328288 -0.745019 -0.366192 45 53 38
-0.172389 -0.511170 -0.356192 52 60 47
0.193375 -0.640087 -0.349947 44 50 38
-0.301306 0.226354 -0.395331 99 99 96
0.109429 -0.406238 -0.377147 48 56 43
-0.277321 -0.541151 -0.372112 43 50 38
-0.691054 0.037476 -0.378757 47 57 43
-0.748017 -0.082447 -0.384735 71 86 67
0.703046 -0.322292 -0.392472 54 66 52
-0.619101 -0.685058 -0.371697 43 51 38
0.637089 -0.760010 -0.375941 39 46 38
-0.727031 0.337282 -0.383875 37 49 35
-0.682060 0.739023 -0.375942 37 44 36
0.124420 -0.457205 -0.386050 42 48 36
-0.403240 0.739023 -0.381664 38 50 40
-0.022485 0.388250 -0.387108 37 49 35
-0.487186 0.325290 -0.396072 41 53 39
-0.199371 -0.175387 -0.393272 56 69 52
-0.376257 -0.511170 -0.394736 46 56 43
-0.175387 0.052466 -0.370281 68 82 64
-0.685058 0.181383 -0.386721 38 45 37
-0.169391 -0.739023 -0.383619 42 50 37
-0.154400 0.448211 -0.372600 37 49 35
-0.346277 0.007495 -0.358057 82 97 77
-0.106431 0.055464 -0.355381 68 83 64
-0.646083 0.715039 -0.343742 31 43 33
0.625097 0.595116 -0.363636 34 46 36
-0.082447 0.034478 -0.362814 61 76 55
-0.763008 -0.283317 -0.370402 58 71 54
0.550145 -0.391248 -0.355918 50 62 48
0.286315 0.460203 -0.368343 38 50 36
0.649081 -0.676064 -0.383979 46 54 41
0.331286 0.733027 -0.397256 35 47 37
-0.724033 0.775000 -0.379886 33 45 35
0.271325 0.421228 -0.400297 39 50 36
-0.652079 0.469197 -0.363454 38 45 37
-0.037476 -0.589120 -0.421076 45 53 40
-0.013491 -0.409236 -0.356273 45 51 39
-0.103433 0.004497 -0.377058 63 77 59
-0.262331 0.043472 -0.390462 85 98 80
0.325290 -0.652079 -0.362934 44 52 39
0.652079 0.016489 -0.375919 255 255 255
-0.181383 0.025484 -0.404710 69 84 65
0.739023 0.172389 -0.380470 45 53 40
-0.211364 -0.055464 -0.370342 65 78 61
0.415232 -0.310300 -0.377410 51 64 47
-0.118424 -0.643085 -0.358695 45 53 40
-0.019487 0.769004 -0.386990 35 47 37
0.529159 0.511170 -0.391873 35 47 33
0.652079 -0.742021 -0.356487 41 49 36
-0.259333 -0.157398 -0.390107 57 71 54
-0.373259 -0.250338 -0.366310 55 68 51
-0.478191 -0.013491 -0.353110 86 99 81
-0.544149 0.157398 -0.401417 255 255 255
-0.529159 -0.595116 -0.362925 46 54 41
-0.289313 0.088443 -0.377217 121 140 112
0.571132 -0.589120 -0.380383 43 55 41
-0.523162 -0.118424 -0.428348 60 73 57
-0.571132 -0.505174 -0.386255 47 60 43
-0.163395 -0.223356 -0.380339 54 67 50
0.475193 -0.460203 -0.373644 48 56 43
-0.499178 0.106431 -0.382988 246 252 254
-0.586122 -0.103433 -0.383142 71 86 69
-0.187379 0.718037 -0.370313 33 45 35
-0.616103 -0.394246 -0.368791 49 62 45
-0.508172 -0.610106 -0.376424 43 51 38
-0.445213 -0.436219 -0.363081 41 53 39
-0.556141 -0.535155 -0.378329 47 57 43
0.283317 0.619101 -0.381104 36 43 35
0.346277 0.490184 -0.390551 40 48 35
-0.187379 0.613104 -0.391586 29 30 26
-0.721035 0.583124 -0.380669 36 48 38
-0.448211 -0.643085 -0.366963 46 54 41
-0.193375 -0.046470 -0.375849 64 79 60
-0.760010 -0.583124 -0.374534 45 57 43
0.286315 0.478191 -0.382314 38 50 36
-0.004497 -0.709043 -0.363428 40 48 35
-0.385251 0.322292 -0.408641 41 48 40
0.547147 -0.034478 -0.378591 98 117 93
-0.751015 0.292311 -0.387125 37 49 35
-0.091441 0.466199 -0.363981 36 48 34
0.328288 0.193375 -0.411781 53 51 51
-0.574130 0.268327 -0.378064 41 48 40
0.670068 -0.340280 -0.382721 52 65 48
-0.451209 0.625097 -0.391563 36 48 37
0.769004 -0.043472 -0.368945 65 66 71
-0.244342 -0.334284 -0.362022 62 74 59
0.769004 0.028482 -0.384843 255 255 255
-0.139410 -0.379255 -0.377465 39 45 33
-0.043472 0.595116 -0.398758 36 48 34
0.409236 0.328288 -0.369241 42 51 38
-0.541151 0.199371 -0.385906 42 47 41
0.304304 0.331286 -0.382899 44 56 42
0.205368 -0.646083 -0.362702 43 51 38
0.235348 0.328288 -0.362836 43 51 38
-0.022485 0.619101 -0.383049 36 48 34
0.121422 0.724033 -0.382036 33 45 35
-0.304304 -0.493182 -0.371857 45 53 40
0.463201 0.544149 -0.386254 36 48 34
-0.583124 0.376257 -0.383531 38 47 35
0.709043 0.184381 -0.376147 44 52 39
-0.586122 -0.622099 -0.376118 45 53 40
0.610106 0.535155 -0.361104 17 17 17
-0.235348 0.220358 -0.380593 38 45 37
-0.103433 -0.058462 -0.366182 63 76 60
-0.313298 -0.721035 -0.380420 40 48 35
0.595116 0.070455 -0.373228 255 255 255
0.412234 0.202369 -0.415193 39 46 38
0.604110 0.733027 -0.376676 30 42 32
0.418230 -0.076451 -0.377927 55 67 51
0.415232 -0.496180 -0.362367 54 62 49
0.136412 -0.514168 -0.375682 46 54 41
-0.487186 -0.121422 -0.388856 63 76 59
-0.010493 -0.382253 -0.397370 46 52 40
-0.067456 -0.571132 -0.376646 44 52 39
0.343278 -0.505174 -0.361558 45 53 40
-0.694052 0.298308 -0.401539 40 48 35
-0.010493 -0.598114 -0.385157 44 52 39
-0.571132 0.391248 -0.409013 42 53 39
-0.754014 -0.721035 -0.408963 48 60 46
-0.622099 -0.718037 -0.389161 41 48 40
-0.682060 -0.181383 -0.374817 61 75 58
0.766006 -0.040474 -0.387516 144 150 153
-0.115426 -0.049468 -0.393975 64 77 59
-0.103433 0.592118 -0.397349 36 48 34
-0.310300 -0.754013 -0.387440 41 49 36
0.034478 -0.721035 -0.385412 41 49 36
-0.613104 0.070455 -0.340708 42 49 39
0.658075 0.298308 -0.349083 41 53 39
-0.736025 -0.382253 -0.401382 49 62 45
-0.655077 0.280319 -0.389393 43 51 38
0.379255 -0.769004 -0.362490 41 49 36
0.634091 0.553143 -0.407978 22 27 24
-0.106431 0.262331 -0.366368 43 50 42
0.250338 0.610106 -0.395085 36 43 35
-0.265329 -0.076451 -0.363440 58 70 55
0.649081 -0.556141 -0.385762 50 58 45
0.715039 -0.130416 -0.377561 47 59 45
-0.073453 0.586122 -0.388936 36 48 34
-0.247340 0.400242 -0.370438 40 50 40
-0.643085 -0.193375 -0.387869 59 72 55
0.025484 0.625097 -0.365456 35 47 33
0.544149 0.694052 -0.378090 33 45 35
-0.754014 0.736025 -0.382934 34 41 33
-0.334284 -0.097437 -0.389449 56 70 53
-0.505174 0.454207 -0.346544 38 46 33
-0.070455 0.679062 -0.368742 35 47 37
0.409236 -0.199371 -0.394225 54 67 50
0.469197 0.343279 -0.384291 43 51 38
0.187379 0.367263 -0.385459 42 51 38
0.439217 0.223356 -0.369556 43 51 38
0.259333 -0.541151 -0.393442 46 54 41
-0.502176 0.529159 -0.362978 35 47 33
-0.367263 0.493182 -0.343322 41 49 36
-0.160397 -0.127418 -0.377432 56 69 52
0.523162 -0.211364 -0.365188 56 67 51
-0.220358 -0.217360 -0.363173 54 67 50
-0.145406 0.598114 -0.380482 35 47 35
0.736025 -0.232350 -0.368313 49 60 50
0.688056 -0.706044 -0.361907 47 54 41
0.244342 -0.769004 -0.387379 33 40 32
-0.349275 -0.022485 -0.418228 62 77 58
-0.250338 -0.709043 -0.397274 41 49 36
0.526161 0.715039 -0.353545 34 46 36
0.514168 0.112427 -0.390491 35 42 35
-0.400242 0.433220 -0.374639 34 45 35
0.088443 0.076451 -0.382975 122 129 105
-0.205368 0.631093 -0.386661 10 11 13
-0.409236 -0.412234 -0.346874 49 61 47
-0.601112 -0.037476 -0.407360 56 71 53
-0.067456 0.406238 -0.372572 36 48 34
0.601112 -0.199371 -0.396448 64 77 60
0.157398 -0.715039 -0.369673 38 50 36
-0.460203 -0.010493 -0.400827 84 97 79
0.274323 0.532157 -0.355180 35 47 33
-0.319294 0.241344 -0.372318 41 48 40
0.775000 0.631093 -0.389051 36 48 38
-0.301306 -0.031480 -0.379095 70 83 65
0.049468 -0.322292 -0.386835 43 49 37
0.553143 -0.592118 -0.375959 54 66 50
0.427224 -0.520164 -0.378415 51 58 50
0.553143 0.139410 -0.337305 43 50 42
-0.604110 0.421228 -0.390378 39 48 39
0.469197 0.070455 -0.401599 43 51 38
-0.244342 0.238346 -0.382498 40 47 39
-0.742021 -0.745019 -0.359690 55 68 51
-0.391248 -0.556141 -0.374913 50 63 46
-0.601112 0.295309 -0.391136 38 50 36
0.055464 0.097437 -0.371764 118 136 109
0.196373 0.430222 -0.390802 38 50 36
0.550145 -0.697050 -0.375418 48 60 46
0.676064 -0.712041 -0.361176 45 53 40
0.130416 0.442215 -0.368467 35 48 38
-0.271325 0.427224 -0.358212 39 49 35
0.763008 -0.775000 -0.368944 45 53 39
-0.457205 -0.616103 -0.376545 41 48 40
-0.631093 0.412234 -0.389839 18 17 15
0.667070 -0.154400 -0.375986 63 76 58
0.157398 -0.706044 -0.404648 39 45 33
0.148404 0.667070 -0.401225 36 48 38
-0.145406 0.379255 -0.398323 37 49 35
0.457205 0.079449 -0.407287 44 52 39
-0.259333 -0.382253 -0.365318 47 55 42
0.163395 0.379255 -0.399395 43 51 38
0.562137 -0.208366 -0.392778 60 73 56
0.604110 -0.448211 -0.334450 48 60 46
-0.187379 0.163395 -0.353712 41 53 43
0.400242 0.286315 -0.420320 43 51 38
-0.538153 -0.325290 -0.373287 49 61 47
0.208366 0.370261 -0.335909 42 51 38
0.388250 -0.616103 -0.376110 44 52 39
-0.043472 0.193375 -0.380470 41 52 40
0.514168 0.259333 -0.373315 44 52 39
-0.586122 0.385251 -0.376883 36 48 34
-0.130416 -0.454207 -0.379011 45 53 40
-0.583124 0.307302 -0.388976 39 47 38
0.748017 0.361267 -0.383494 43 51 38
0.385251 0.589120 -0.369812 35 47 33
0.271325 -0.403240 -0.358762 44 50 38
0.655077 0.706044 -0.384335 31 43 33
-0.106431 -0.472195 -0.372218 45 53 40
0.016489 -0.286315 -0.354580 46 54 41
-0.724033 0.121422 -0.388395 36 43 35
0.442215 0.337282 -0.376930 43 51 38
-0.343279 -0.010493 -0.408350 71 84 66
0.289313 -0.685058 -0.387332 44 52 39
-0.073453 -0.184381 -0.381000 54 67 50
0.616103 -0.541151 -0.372151 47 59 45
-0.202369 -0.358269 -0.390411 47 55 42
-0.562137 0.202369 -0.389925 41 48 40
-0.667070 0.565135 -0.367676 30 42 32
-0.580126 0.421228 -0.367082 34 44 33
-0.436219 0.700048 -0.385009 35 47 37
-0.604110 -0.226354 -0.394554 54 67 50
0.739023 -0.295309 -0.362828 49 61 48
0.373259 0.187379 -0.380479 51 42 39
0.664072 -0.532157 -0.371193 47 55 42
0.754013 -0.478192 -0.363692 52 65 48
-0.193375 -0.007495 -0.365718 68 83 64
0.307302 0.688056 -0.382734 34 46 32
-0.076451 -0.685058 -0.377063 41 49 36
0.733027 0.760010 -0.394050 32 40 32
-0.256335 -0.655077 -0.380762 42 50 37
0.289313 0.208366 -0.406764 41 47 40
-0.511170 0.514168 -0.396714 35 47 37
0.016489 -0.154400 -0.363078 51 64 47
0.052466 0.487186 -0.350355 37 49 39
-0.136412 -0.679062 -0.356675 40 48 34
-0.553143 -0.358269 -0.377351 45 57 43
-0.103433 0.352273 -0.364549 36 48 34
-0.184381 -0.412234 -0.398760 40 48 35
0.127418 -0.598114 -0.368844 45 53 40
-0.415232 0.760010 -0.400545 36 48 38
-0.055464 0.433220 -0.378814 36 48 34
-0.550145 0.343279 -0.363428 38 50 36
-0.193375 -0.565135 -0.390000 50 57 48
-0.313298 0.295309 -0.364314 39 44 32
-0.757012 0.373259 -0.380648 36 48 34
0.433220 0.061460 -0.338612 52 64 50
0.496180 0.139410 -0.390357 43 51 38
0.523162 0.331286 -0.384865 43 51 38
0.526161 -0.058462 -0.374788 66 79 62
0.487186 0.334284 -0.384272 40 52 38
0.556141 -0.739023 -0.366122 43 51 37
-0.727031 0.622099 -0.332443 35 47 36
0.064458 -0.679062 -0.359211 41 49 36
-0.124420 0.688056 -0.362026 35 47 37
-0.007495 -0.439217 -0.392677 42 50 37
0.364265 -0.715039 -0.356537 43 51 38
0.481190 0.274323 -0.375219 41 53 39
0.481190 -0.250338 -0.388817 67 80 64
-0.253337 0.445213 -0.382062 41 51 38
0.610106 -0.421228 -0.391848 49 61 47
0.709043 -0.256335 -0.335887 56 69 52
-0.535155 0.595116 -0.373148 38 50 40
-0.136412 0.727031 -0.403319 35 47 37
-0.676064 -0.562137 -0.405690 47 55 42
-0.691054 0.028482 -0.418534 50 62 47
-0.313298 0.076451 -0.382165 99 116 91
0.028482 0.067456 -0.373180 95 110 88
0.100435 0.115426 -0.384420 150 169 133
0.763008 -0.643085 -0.378156 46 54 41
0.295309 0.334284 -0.394079 45 53 40
-0.712041 -0.502176 -0.397958 43 51 39
0.271325 -0.712041 -0.404254 42 50 37
0.421228 -0.745019 -0.379095 43 51 38
0.535155 0.568133 -0.359190 35 47 37
-0.181383 0.406238 -0.406546 37 49 39
0.136412 -0.550145 -0.369355 47 55 42
-0.049468 0.736025 -0.391941 33 46 36
-0.712041 -0.136412 -0.353026 55 70 51
0.361267 0.652079 -0.375482 33 45 31
-0.361267 0.295309 -0.400244 42 52 39
0.415232 0.571132 -0.379566 36 48 34
-0.421228 -0.757012 -0.379965 43 51 38
-0.178385 0.598114 -0.383655 33 36 32
0.643085 -0.418230 -0.361874 47 59 45
0.247340 -0.478192 -0.385200 46 54 41
0.634091 -0.322292 -0.358586 52 65 48
0.031480 0.268327 -0.372539 41 48 38
-0.481190 0.019487 -0.380446 70 83 66
0.313298 0.532157 -0.374373 37 49 35
0.439217 0.463201 -0.372579 34 46 32
-0.319294 0.208366 -0.382070 255 254 255
-0.148404 0.637089 -0.373772 35 47 33
-0.334284 -0.577128 -0.381253 45 57 43
-0.046470 0.361267 -0.377622 37 49 35
-0.514168 -0.010493 -0.355705 79 92 74
-0.637089 0.739023 -0.381613 28 40 30
0.595116 -0.328288 -0.381361 52 64 50
-0.475193 -0.244342 -0.392382 49 61 46
-0.532157 0.157398 -0.352784 255 255 255
0.316296 -0.655077 -0.379792 44 52 39
-0.028482 0.172389 -0.390217 37 48 34
-0.307302 -0.358269 -0.376962 50 58 45
-0.025484 -0.463201 -0.384325 43 50 38
-0.160397 -0.253337 -0.369318 50 63 46
-0.193375 -0.730029 -0.370820 41 49 36
-0.487186 0.340280 -0.379959 43 52 39
-0.385251 -0.439217 -0.387041 47 55 42
-0.301306 -0.055464 -0.390392 66 79 61
-0.388250 -0.337282 -0.383153 51 59 46
-0.211364 0.094439 -0.363094 76 91 71
-0.016489 -0.499178 -0.357771 41 49 36
-0.538153 -0.598114 -0.391729 46 54 41
0.205368 0.652079 -0.348601 34 46 36
-0.448211 -0.319294 -0.395033 44 56 43
-0.685058 -0.247340 -0.372052 48 60 46
0.442215 -0.355271 -0.374772 49 61 47
-0.322292 -0.397244 -0.407231 45 57 43
-0.613104 0.496180 -0.388738 36 48 37
0.766006 0.343279 -0.390882 41 53 39
0.565135 -0.655077 -0.385247 46 54 41
0.007495 -0.745019 -0.395593 39 47 35
0.433220 0.709043 -0.390753 36 48 38
-0.271325 0.385251 -0.376187 44 52 40
-0.460203 0.247340 -0.397634 37 44 36
-0.172389 -0.634091 -0.359875 42 50 37
0.616103 -0.706044 -0.383031 46 54 41
0.490184 -0.601112 -0.382119 45 53 41
0.298308 0.250338 -0.396951 41 48 40
-0.160397 -0.562137 -0.388414 39 47 34
-0.490184 -0.196373 -0.373075 54 69 52
-0.418230 0.493182 -0.379245 36 48 34
-0.055464 0.130416 -0.405006 51 64 47
0.454207 0.637089 -0.394545 35 47 37
-0.337282 -0.304304 -0.373360 48 56 43
0.769004 0.493182 -0.401603 37 49 35
-0.373259 0.040474 -0.370306 100 116 88
-0.505174 0.166393 -0.384923 255 255 255
0.427224 0.280319 -0.381689 40 52 38
-0.301306 0.217360 -0.389425 255 255 255
0.352273 0.244342 -0.392209 43 51 38
0.721035 -0.505174 -0.398991 45 56 42
-0.283317 -0.157398 -0.367545 57 71 54
-0.031480 0.322292 -0.386215 37 49 35
0.388250 0.691054 -0.371276 35 47 37
0.598114 0.208366 -0.384469 41 52 39
-0.385251 -0.475193 -0.348099 44 56 42
-0.010493 -0.661073 -0.376921 47 55 42
-0.010493 0.034478 -0.396857 66 78 60
0.586122 -0.175387 -0.352650 63 76 59
0.472195 -0.418230 -0.378185 49 62 45
-0.289313 0.019487 -0.378108 82 96 76
0.076451 -0.322292 -0.367199 42 48 36
-0.022485 -0.682060 -0.394630 43 51 38
-0.631093 0.085445 -0.405819 35 40 34
0.424226 -0.391248 -0.359470 58 68 52
-0.598114 -0.133414 -0.395858 50 64 50
-0.763008 0.628095 -0.395778 34 46 36
-0.178385 -0.742021 -0.363646 41 49 36
0.529159 0.454207 -0.376830 37 49 35
-0.775000 0.052466 -0.398136 40 47 39
-0.382253 0.442215 -0.389229 40 48 38
0.610106 0.253337 -0.393519 45 53 40
-0.499178 -0.664072 -0.384116 49 57 44
0.475193 0.127418 -0.386049 41 49 36
-0.760010 -0.742021 -0.429985 40 52 38
-0.586122 0.133414 -0.395172 255 255 255
-0.442215 -0.115426 -0.370217 64 77 60
-0.037476 -0.481190 -0.378218 45 53 40
-0.466199 0.364265 -0.385970 40 52 38
0.733027 -0.229352 -0.378845 49 60 48
-0.718037 -0.073453 -0.404688 58 72 55
-0.646083 0.553143 -0.391303 32 39 31
0.127418 -0.526161 -0.382372 47 55 42
0.700048 -0.181383 -0.387095 59 72 53
0.343278 0.181383 -0.407758 255 255 255
-0.496180 -0.580126 -0.369380 46 54 41
0.730029 0.628095 -0.378036 36 48 36
0.721035 -0.442215 -0.388356 50 63 48
0.682060 -0.316296 -0.369850 54 66 52
-0.325290 0.466199 -0.374446 40 52 38
-0.727031 -0.136412 -0.358194 55 69 53
0.499178 0.406238 -0.382029 36 48 34
0.379255 0.592118 -0.372553 35 47 33
-0.043472 -0.670068 -0.355190 43 51 38
0.601112 -0.580126 -0.387941 47 55 42
-0.763008 -0.376257 -0.376238 48 60 46
0.025484 0.493182 -0.383477 37 49 35
0.403240 0.409236 -0.371644 43 51 38
-0.703046 0.385251 -0.370124 38 50 36
-0.280319 -0.352273 -0.374679 46 54 41
0.763008 -0.499178 -0.367472 53 61 48
0.007495 -0.046470 -0.369413 55 61 46
-0.706044 0.010493 -0.377655 53 68 50
0.469197 0.679062 -0.364671 34 46 36
-0.661074 -0.421228 -0.374433 48 60 46
-0.454207 0.037476 -0.365170 51 65 51
-0.751015 0.073453 -0.378759 43 50 42
-0.721035 0.748017 -0.402211 35 43 35
-0.532157 -0.769004 -0.422299 41 49 36
-0.400242 -0.004497 -0.381413 75 90 68
-0.679062 0.256335 -0.359936 40 49 36
-0.079449 0.289313 -0.406829 41 48 40
-0.682060 -0.517166 -0.376251 42 54 40
0.172389 0.661074 -0.370509 36 48 38
0.286315 0.706044 -0.372683 35 46 37
-0.112427 -0.679062 -0.392421 39 47 36
-0.277321 0.127418 -0.402932 54 64 51
-0.679062 0.544149 -0.367651 35 47 32
0.730029 0.301306 -0.392994 41 53 39
0.268327 -0.613104 -0.386279 44 52 39
0.625097 -0.133414 -0.400087 67 80 62
0.091441 -0.697050 -0.387376 44 52 39
0.439217 0.115426 -0.372692 34 41 33
0.640087 -0.322292 -0.384647 52 65 48
0.358269 -0.430222 -0.380798 41 47 35
0.241344 0.637089 -0.403300 33 45 31
0.442215 -0.442215 -0.376472 47 56 43
-0.280319 -0.325290 -0.365289 51 64 46
0.109429 -0.556141 -0.360751 46 52 40
0.691054 0.775000 -0.383709 27 39 29
-0.163395 -0.100435 -0.389414 56 70 53
0.751015 0.550145 -0.357206 37 49 40
-0.688056 0.298308 -0.372272 40 50 36
0.445213 -0.415232 -0.385222 52 60 47
-0.127418 0.352273 -0.382306 37 49 35
-0.601112 0.007495 -0.377924 61 76 57
-0.094439 0.649081 -0.376014 35 47 37
-0.658075 0.379255 -0.362279 37 49 35
0.355271 0.460203 -0.405536 40 49 36
0.700048 0.763008 -0.374940 28 40 30
-0.643085 0.121422 -0.380328 31 35 30
0.763008 -0.514168 -0.378498 52 60 47
0.046470 0.562137 -0.385832 37 49 39
-0.061460 0.430222 -0.380240 36 48 34
-0.163395 0.079449 -0.369169 65 80 61
0.100435 0.127418 -0.368847 68 82 65
0.775000 -0.448211 -0.420653 50 62 48
-0.010493 -0.745019 -0.369690 40 48 36
0.121422 0.391248 -0.399271 40 52 38
-0.070455 -0.094439 -0.394399 59 72 55
-0.145406 0.226354 -0.385865 41 51 40
0.520164 0.418230 -0.391572 37 49 35
0.427224 0.472195 -0.381192 37 49 35
0.193375 -0.460203 -0.381409 45 53 40
-0.055464 0.478191 -0.368818 37 49 35
0.214362 -0.325290 -0.371197 45 53 40
-0.076451 0.220358 -0.387484 43 50 42
-0.400242 -0.133414 -0.382774 62 76 59
-0.286315 -0.040474 -0.381807 68 81 64
-0.451209 0.442215 -0.337205 38 50 36
0.604110 0.607108 -0.370054 34 46 36
0.628095 0.364265 -0.365049 38 51 38
0.559139 0.442215 -0.396775 36 48 34
0.490184 0.433220 -0.363745 37 49 35
0.148404 0.541151 -0.388054 34 46 32
-0.574130 -0.043472 -0.413112 62 74 58
-0.040474 -0.532157 -0.384555 44 52 39
0.532157 0.436219 -0.394702 37 49 35
0.622099 0.172389 -0.363275 44 52 39
0.742021 0.484188 -0.373813 38 50 36
0.112427 0.574130 -0.395156 36 48 34
-0.235348 0.616103 -0.354757 16 16 15
-0.427224 -0.499178 -0.376541 44 56 42
-0.700048 0.715039 -0.382840 37 44 36
-0.250338 0.625097 -0.383772 30 42 32
0.262331 -0.523162 -0.389907 45 53 40
-0.697050 0.451209 -0.359588 37 49 35
-0.523162 -0.307302 -0.366006 50 62 48
-0.655077 0.283317 -0.394780 43 51 38
-0.703046 -0.697050 -0.376650 37 45 32
0.670068 0.073453 -0.383371 255 255 255
0.148404 0.505174 -0.408888 34 46 32
0.046470 -0.700048 -0.391848 40 48 35
0.190377 -0.613104 -0.364786 47 55 42
-0.763008 0.178385 -0.390777 38 49 35
-0.046470 0.481190 -0.383658 36 48 34
-0.286315 0.763008 -0.388421 33 45 35
0.439217 -0.160397 -0.414171 54 66 52
-0.616103 0.373259 -0.403631 39 51 41
0.673066 -0.634091 -0.355996 46 54 41
-0.697050 0.118424 -0.386274 33 40 32
-0.373259 0.220358 -0.373452 45 50 44
0.445213 -0.073453 -0.358075 54 66 52
-0.361267 -0.586122 -0.399154 44 52 39
-0.271325 -0.484188 -0.384489 41 48 40
-0.286315 -0.319294 -0.372102 60 73 56
-0.181383 0.754014 -0.378885 33 45 35
-0.400242 -0.016489 -0.372172 63 77 59
0.730029 -0.169391 -0.390318 45 57 43
-0.184381 -0.247340 -0.389680 52 65 48
0.124420 0.571132 -0.406389 40 46 35
0.670068 -0.496180 -0.373479 50 58 45
-0.262331 -0.001499 -0.368706 75 88 70
-0.211364 0.562137 -0.403090 33 44 32
0.280319 0.571132 -0.369938 36 48 34
0.640087 0.319294 -0.396045 41 53 39
-0.412234 0.316296 -0.379818 46 55 41
-0.652079 -0.100435 -0.359259 61 76 58
-0.022485 -0.742021 -0.366080 39 47 34
0.583124 0.016489 -0.345909 42 45 40
-0.160397 0.034478 -0.408069 67 82 63
-0.025484 0.538153 -0.370608 36 48 34
0.511170 0.313298 -0.381782 41 52 38
-0.022485 0.136412 -0.375946 52 63 48
-0.196373 -0.223356 -0.383986 56 69 52
-0.025484 0.274323 -0.372207 41 49 36
0.658075 0.415232 -0.361228 37 49 35
0.652079 -0.244342 -0.401075 58 71 54
0.649081 0.136412 -0.397768 43 50 42
0.007495 0.337282 -0.342741 38 50 36
-0.298308 -0.586122 -0.413156 50 57 45
-0.520164 -0.298308 -0.406906 50 62 48
-0.169391 0.142408 -0.402187 47 58 45
0.319294 0.388250 -0.380505 38 50 36
0.346277 0.547147 -0.360999 40 48 35
0.013491 -0.259333 -0.386614 51 57 44
0.715039 0.319294 -0.366926 43 53 40
0.751015 0.262331 -0.352234 43 55 41
-0.487186 -0.103433 -0.370732 56 69 52
0.580126 -0.562137 -0.390672 45 57 43
0.769004 0.223356 -0.376757 35 47 33
0.436219 -0.532157 -0.407901 42 50 37
-0.241344 -0.319294 -0.385394 50 58 45
0.298308 -0.502176 -0.368178 43 51 38
0.691054 0.238346 -0.378615 43 52 41
-0.001499 0.196373 -0.378458 44 52 39
0.094439 0.451209 -0.365565 36 48 34
0.676064 -0.151402 -0.360361 62 74 58
-0.766006 0.037476 -0.386110 42 48 40
0.754013 -0.088443 -0.380210 83 96 78
-0.559139 -0.199371 -0.371481 51 65 51
0.136412 -0.334284 -0.397023 46 52 40
0.031480 0.691054 -0.377818 36 48 34
-0.310300 -0.742021 -0.375829 45 53 40
0.514168 0.601112 -0.375953 35 47 37
-0.556141 -0.706044 -0.360741 43 51 38
-0.712041 0.091441 -0.362258 39 46 38
0.601112 -0.049468 -0.386178 83 96 78
-0.736025 -0.364265 -0.391304 45 57 43
-0.766006 -0.559139 -0.373233 48 60 45
-0.190377 0.097437 -0.375194 69 84 65
0.703046 0.361267 -0.377284 40 52 38
-0.700048 0.094439 -0.379373 39 46 38
-0.478191 -0.196373 -0.364281 56 69 52
-0.496180 0.244342 -0.410806 39 46 38
-0.427224 0.646083 -0.359254 34 46 32
0.511170 0.628095 -0.368264 34 46 36
-0.574130 0.637089 -0.358690 33 45 35
-0.508172 -0.412234 -0.371565 47 59 45
-0.322292 -0.571132 -0.361287 47 55 42
-0.148404 0.643085 -0.392129 34 46 32
-0.361267 0.187379 -0.361333 255 255 255
0.340280 0.274323 -0.393193 44 52 39
0.466199 -0.757012 -0.389112 41 49 36
-0.199371 -0.472195 -0.380698 46 54 41
0.187379 -0.445213 -0.387931 47 53 41
-0.151402 0.475193 -0.357081 37 49 35
-0.244342 -0.097437 -0.363535 62 75 57
0.151402 0.202369 -0.388002 255 255 255
-0.760010 0.220358 -0.370000 38 50 36
-0.061460 -0.001499 -0.391205 67 80 63
-0.364265 -0.736025 -0.396090 41 49 36
0.610106 -0.379255 -0.383001 50 62 48
-0.544149 0.337282 -0.352185 38 50 36
-0.322292 -0.322292 -0.390976 49 57 44
-0.535155 0.463201 -0.371012 37 45 32
0.487186 -0.358269 -0.381148 50 62 48
0.610106 -0.523162 -0.395357 47 59 45
-0.184381 0.337282 -0.382289 40 52 38
0.691054 0.724033 -0.385325 29 41 31
-0.403240 -0.130416 -0.396005 53 67 50
-0.079449 -0.223356 -0.392043 51 64 47
-0.337282 -0.148404 -0.397305 50 62 48
0.283317 -0.754013 -0.378787 38 46 35
-0.127418 -0.067457 -0.397294 63 78 59
-0.772002 0.262331 -0.369123 37 49 35
0.067457 -0.394246 -0.406698 45 51 39
0.307302 0.325290 -0.394000 42 54 40
-0.232350 0.175387 -0.382376 47 55 43
0.106431 0.658075 -0.401496 36 46 37
0.532157 0.055464 -0.390275 32 32 32
0.355271 -0.214362 -0.386459 55 68 51
-0.247340 0.427224 -0.376563 44 51 43
-0.292311 0.730029 -0.390075 33 45 35
0.070455 0.484188 -0.380750 36 48 34
0.043472 0.415232 -0.362793 37 49 35
0.556141 -0.079449 -0.355880 80 93 75
0.004497 0.490184 -0.368532 35 47 33
0.169391 0.340280 -0.369709 43 51 38
0.355271 0.337282 -0.365296 41 49 36
0.448211 -0.367263 -0.374571 48 60 46
-0.340280 -0.751015 -0.370749 45 53 40
-0.034478 -0.556141 -0.382762 45 53 40
-0.211364 0.472195 -0.371284 38 50 36
-0.610106 0.382253 -0.361852 44 52 39
-0.415232 0.292311 -0.402450 40 47 39
-0.721035 0.445213 -0.364472 37 49 35
-0.301306 0.529159 -0.387144 40 52 38
-0.001499 0.343279 -0.389591 37 49 35
-0.250338 -0.583124 -0.395938 43 51 38
0.646083 0.511170 -0.372490 32 42 33
0.112427 0.325290 -0.365597 43 51 38
0.490184 0.019487 -0.375287 70 81 64
-0.562137 0.187379 -0.400681 55 56 48
-0.598114 0.061460 -0.364839 57 70 52
0.262331 -0.439217 -0.369528 46 54 41
0.079449 0.274323 -0.373052 40 52 42
-0.619101 -0.256335 -0.367196 48 60 46
-0.049468 0.010493 -0.374062 66 80 62
-0.541151 -0.004497 -0.360060 75 88 68
0.586122 0.763008 -0.371038 30 42 32
0.697050 0.634091 -0.379831 32 44 34
-0.013491 -0.418230 -0.384990 44 50 38
-0.547147 0.265329 -0.392020 36 49 34
0.478192 0.574130 -0.419296 36 48 34
0.592118 -0.310300 -0.411897 54 66 52
0.475193 0.196373 -0.377446 44 51 43
-0.259333 -0.643085 -0.396360 41 49 36
-0.196373 -0.682060 -0.376654 43 51 38
0.235348 -0.352273 -0.375443 46 54 41
0.637089 0.604110 -0.386120 34 46 32
-0.175387 -0.004497 -0.388024 67 82 63
0.091441 -0.490184 -0.371463 45 51 39
-0.631093 -0.490184 -0.412391 43 55 41
-0.580126 0.199371 -0.357281 37 44 37
0.241344 0.757012 -0.360237 34 46 36
-0.439217 0.487186 -0.405955 38 50 36
-0.724033 -0.625097 -0.364278 40 48 35
-0.466199 0.229352 -0.398434 37 44 36
-0.463201 0.205368 -0.389334 44 46 41
-0.541151 -0.241344 -0.372605 53 61 48
-0.223356 -0.634091 -0.384599 40 48 35
0.490184 0.766006 -0.390970 40 52 42
-0.349275 -0.748017 -0.359929 44 52 39
0.397244 -0.220358 -0.353502 55 68 51
-0.208366 0.253337 -0.391370 41 49 36
-0.013491 0.076451 -0.365001 64 79 60
-0.550145 0.637089 -0.385535 35 47 37
-0.682060 0.451209 -0.388136 36 48 34
-0.079449 -0.487186 -0.374321 44 52 39
0.265329 -0.706044 -0.370855 41 49 36
-0.580126 -0.361267 -0.368735 48 60 46
-0.016489 0.628095 -0.341532 36 48 38
0.133414 0.208366 -0.361040 255 255 255
-0.658075 -0.562137 -0.407994 46 54 41
0.559139 0.598114 -0.371114 33 45 35
0.121422 -0.655077 -0.374478 42 48 36
-0.049468 -0.100435 -0.383639 56 69 52
-0.019487 -0.532157 -0.374212 41 49 36
0.541151 -0.001499 -0.386005 92 106 80
-0.631093 0.703046 -0.385909 31 43 33
-0.166393 0.604110 -0.387584 32 37 31
0.115426 -0.769004 -0.392974 40 46 34
-0.025484 0.202369 -0.355057 42 49 41
0.211364 0.580126 -0.367498 30 31 28
0.619101 0.190377 -0.354586 42 54 40
-0.292311 0.217360 -0.384090 255 255 255
-0.349275 0.127418 -0.381786 77 69 72
-0.661074 -0.502176 -0.379019 43 55 41
-0.409236 -0.550145 -0.361758 40 53 39
-0.118424 0.700048 -0.342017 35 47 33
0.529159 -0.709043 -0.369228 37 45 32
-0.292311 0.223356 -0.391730 58 52 49
0.601112 0.667070 -0.392824 28 40 30
0.211364 0.655077 -0.378687 34 46 36
0.448211 -0.310300 -0.381968 53 66 49
0.226354 0.736025 -0.397965 34 46 36
0.532157 -0.550145 -0.379708 42 50 37
-0.229352 0.409236 -0.386027 42 51 38
-0.667070 0.652079 -0.388567 36 48 34
0.250338 -0.715039 -0.384830 40 47 39
-0.529159 -0.280319 -0.366459 50 62 48
-0.616103 -0.190377 -0.377972 58 71 54
0.127418 0.595116 -0.401956 36 47 38
0.241344 -0.589120 -0.392566 44 52 39
-0.580126 -0.031480 -0.371048 62 77 58
-0.580126 0.601112 -0.383319 32 41 32
0.343278 -0.760010 -0.356416 41 49 36
-0.301306 0.451209 -0.416190 34 46 32
0.457205 0.235348 -0.382021 40 52 38
0.520164 -0.676064 -0.389034 43 51 38
-0.574130 -0.259333 -0.378534 49 61 47
-0.160397 -0.037476 -0.386313 64 78 61
0.016489 -0.568133 -0.387850 43 51 38
0.163395 -0.730029 -0.386959 38 42 33
-0.016489 -0.478192 -0.390752 46 54 41
-0.376257 0.076451 -0.377396 54 64 50
-0.460203 -0.064458 -0.370510 85 98 78
-0.019487 0.577128 -0.341133 36 48 38
0.724033 -0.634091 -0.366206 48 56 43
0.538153 0.124420 -0.373047 43 55 41
0.109429 -0.679062 -0.357898 40 48 35
0.097437 -0.760010 -0.387623 40 46 34
0.130416 -0.265329 -0.399494 41 53 41
0.634091 -0.547147 -0.389984 49 56 44
0.466199 -0.130416 -0.373182 52 65 49
0.640087 0.544149 -0.379845 8 10 9
-0.775000 -0.214362 -0.390640 64 79 60
-0.247340 0.067456 -0.382537 87 100 81
-0.709043 -0.418230 -0.370271 49 61 47
0.700048 -0.736025 -0.394740 44 53 39
-0.502176 0.043472 -0.376231 76 91 73
-0.523162 -0.064458 -0.383027 66 80 63
-0.568133 0.388250 -0.412287 44 52 39
-0.103433 0.481190 -0.390785 36 48 34
0.523162 -0.760010 -0.367782 44 52 39
-0.307302 0.496180 -0.381713 38 50 36
-0.352273 -0.484188 -0.371454 46 54 41
0.166393 -0.640087 -0.372218 44 50 38
0.682060 -0.547147 -0.383432 47 59 45
-0.529159 -0.118424 -0.364692 54 67 50
0.682060 -0.709043 -0.354707 46 54 41
0.481190 -0.574130 -0.400402 40 48 35
0.445213 -0.553143 -0.381628 42 50 37
0.700048 0.529159 -0.366545 35 47 33
-0.403240 -0.433220 -0.362471 42 54 40
-0.229352 0.349275 -0.352671 43 50 42
-0.730029 -0.655077 -0.358891 43 54 41
0.754013 0.643085 -0.354927 36 48 38
-0.640087 0.610106 -0.358168 36 39 33
0.028482 -0.427224 -0.383845 48 54 42
0.568133 -0.163395 -0.357399 62 75 58
0.520164 -0.640087 -0.398793 44 52 39
-0.742021 -0.616103 -0.388764 45 57 43
0.766006 -0.556141 -0.395334 48 56 43
0.472195 0.205368 -0.355594 42 54 39
-0.457205 0.025484 -0.359120 84 99 80
-0.616103 -0.754013 -0.399912 40 47 39
-0.661074 0.190377 -0.341119 37 44 36
-0.007495 0.445213 -0.381019 36 48 34
-0.472195 0.157398 -0.387544 255 255 255
0.712041 -0.667070 -0.367484 47 55 42
0.529159 -0.433220 -0.375655 48 60 46
-0.553143 0.571132 -0.383434 34 41 33
0.757012 -0.064458 -0.366014 46 53 45
-0.160397 -0.676064 -0.397829 41 49 36
0.028482 -0.433220 -0.357528 48 54 42
-0.652079 0.460203 -0.361416 38 45 37
0.403240 -0.265329 -0.362857 55 68 51
0.124420 -0.400242 -0.396836 47 54 41
-0.427224 0.004497 -0.370836 72 86 66
0.358269 -0.727031 -0.358459 44 52 39
-0.655077 -0.727031 -0.395226 38 48 39
0.241344 0.412234 -0.389680 38 50 36
0.586122 0.043472 -0.382219 255 255 255
0.505174 -0.565135 -0.351920 43 51 38
0.103433 -0.418230 -0.340952 49 57 44
-0.619101 -0.466199 -0.374238 56 69 52
0.130416 -0.358269 -0.369015 41 47 35
-0.604110 -0.334284 -0.367366 47 60 45
0.676064 0.517166 -0.360165 28 35 27
0.583124 -0.355271 -0.395934 51 64 47
0.544149 0.421228 -0.387643 37 49 35
0.508172 -0.388250 -0.371812 49 61 47
0.520164 0.088443 -0.399130 20 24 21
0.472195 0.385251 -0.358515 39 51 37
-0.373259 0.583124 -0.398505 35 46 37
0.694052 -0.445213 -0.399575 53 61 48
0.301306 0.523162 -0.386888 36 48 34
0.016489 -0.166393 -0.356242 52 60 48
-0.454207 -0.349275 -0.368866 46 58 44
-0.250338 0.730029 -0.396250 28 40 30
0.232350 -0.565135 -0.364561 45 53 40
-0.580126 0.610106 -0.390962 34 46 36
-0.628095 0.712041 -0.416685 30 42 32
-0.709043 0.076451 -0.383804 42 51 41
-0.403240 -0.373259 -0.391452 44 56 42
0.445213 0.103433 -0.345586 36 48 38
0.181383 -0.493182 -0.367806 44 51 39
-0.586122 -0.058462 -0.379338 65 80 61
-0.319294 -0.310300 -0.378475 56 69 52
-0.097437 0.145406 -0.406050 45 58 43
0.007495 -0.373259 -0.380913 47 53 42
-0.121422 0.298308 -0.400253 40 52 38
-0.718037 -0.739023 -0.388732 41 49 36
0.157398 0.745019 -0.372514 34 46 36
-0.619101 -0.694052 -0.385025 44 52 39
-0.190377 0.526161 -0.399413 35 47 33
-0.754014 0.412234 -0.375373 36 48 34
-0.481190 -0.133414 -0.385175 63 76 58
0.355271 -0.577128 -0.411385 45 53 40
0.493182 -0.430222 -0.342049 51 60 47
-0.772002 0.124420 -0.409836 41 48 40
-0.094439 -0.655077 -0.371603 47 55 42
0.640087 -0.100435 -0.358776 71 84 66
-0.226354 0.346277 -0.396054 43 50 42
0.244342 0.583124 -0.382166 36 43 34
0.379255 0.241344 -0.354189 40 50 37
0.061460 -0.385251 -0.377886 44 50 38
0.664072 -0.544149 -0.380182 45 57 43
0.529159 0.547147 -0.402783 33 45 36
0.661073 -0.475193 -0.394829 51 59 46
0.691054 0.565135 -0.393439 24 28 23
0.451209 0.571132 -0.375714 36 48 34
-0.589120 0.619101 -0.404932 31 43 32
0.133414 -0.313298 -0.368587 47 55 41
-0.409236 0.166393 -0.356992 255 255 255
0.610106 -0.622099 -0.371956 46 54 41
0.760010 -0.127418 -0.375390 83 96 78
-0.319294 0.655077 -0.376341 36 48 34
-0.682060 0.256335 -0.377077 38 50 36
-0.601112 0.472195 -0.371804 40 52 42
-0.277321 0.769004 -0.393587 33 45 35
-0.736025 0.148404 -0.369004 41 48 40
0.484188 0.697050 -0.377910 33 45 32
0.022485 -0.772002 -0.374328 40 46 39
-0.634091 -0.403240 -0.389348 49 61 47
0.574130 0.127418 -0.390097 41 48 40
0.607108 -0.541151 -0.374694 46 58 44
-0.202369 0.709043 -0.365949 33 45 35
-0.097437 -0.457205 -0.362163 45 52 39
0.757012 0.607108 -0.353596 36 48 38
-0.595116 -0.025484 -0.395802 73 88 70
0.478192 0.727031 -0.395861 42 54 40
-0.058462 0.760010 -0.369971 30 42 32
-0.148404 0.193375 -0.366103 33 40 32
-0.094439 0.025484 -0.369012 65 80 59
0.547147 -0.526161 -0.394259 50 62 48
0.373259 0.619101 -0.381123 33 45 35
-0.679062 0.016489 -0.381200 55 70 53
-0.145406 0.283317 -0.391433 40 52 38
0.598114 0.601112 -0.385538 33 45 31
-0.703046 -0.277321 -0.397310 48 60 46
0.415232 -0.763008 -0.391229 43 51 38
0.775000 0.319294 -0.393533 40 52 38
-0.547147 -0.385251 -0.362602 47 59 45
-0.610106 -0.331286 -0.373599 46 60 44
-0.076451 -0.199371 -0.394045 53 66 49
0.181383 -0.652079 -0.360658 44 52 39
-0.100435 -0.751015 -0.368533 39 47 34
0.640087 0.235348 -0.387092 42 49 36
0.751015 -0.103433 -0.373106 87 100 79
-0.304304 -0.742021 -0.406323 45 53 39
-0.442215 -0.310300 -0.381815 65 78 60
-0.067456 0.337282 -0.383204 37 49 35
0.271325 -0.364265 -0.399124 45 51 39
-0.031480 -0.370261 -0.394642 46 51 40
-0.364265 -0.145406 -0.362035 54 69 51
-0.418230 0.625097 -0.355056 28 40 30
0.559139 -0.478192 -0.396797 49 61 47
-0.451209 -0.316296 -0.370448 48 61 46
-0.319294 0.094439 -0.364919 121 142 115
-0.058462 0.169391 -0.399199 40 52 38
-0.331286 -0.529159 -0.377742 45 53 40
-0.424226 0.082447 -0.382715 134 155 122
0.625097 -0.295309 -0.377850 55 68 51
-0.055464 -0.616103 -0.381036 43 51 38
0.082447 0.295309 -0.369149 44 52 39
-0.190377 0.325290 -0.371024 40 52 38
-0.595116 0.679062 -0.391987 34 46 36
-0.466199 0.394246 -0.385175 38 49 35
0.595116 0.379255 -0.390617 38 50 36
-0.718037 -0.394246 -0.381641 49 61 47
0.397244 0.364265 -0.392070 43 51 38
0.070455 0.031480 -0.378861 85 97 80
0.565135 0.592118 -0.384607 31 43 33
0.007495 -0.415232 -0.388817 45 51 39
-0.406238 -0.655077 -0.401912 44 52 39
0.067457 -0.445213 -0.371738 46 54 41
0.361267 0.160397 -0.409723 255 255 255
0.766006 0.169391 -0.366021 42 49 41
-0.712041 0.442215 -0.360061 37 49 35
-0.613104 0.745019 -0.381694 30 42 32
-0.304304 0.259333 -0.364167 37 44 36
0.457205 -0.271325 -0.355730 54 67 50
-0.343279 0.652079 -0.401577 37 49 35
-0.028482 0.004497 -0.372023 70 83 65
-0.697050 -0.310300 -0.397396 45 58 44
0.400242 -0.763008 -0.385484 41 49 36
-0.358269 -0.220358 -0.385414 54 67 50
0.517166 -0.028482 -0.398111 66 80 61
0.289313 -0.379255 -0.370464 39 41 31
