ply
format ascii 1.0
element vertex 1256
property float x
property float y
property float z
property uchar red
property uchar green
property uchar blue
end_header
-0.236485 -0.390595 0.093359 127 121 118
-0.068082 -0.182015 0.069681 41 39 41
-0.127911 -0.168396 0.089466 41 38 40
-0.007956 0.007677 0.075832 92 75 64
-0.105666 0.180003 0.114046 35 32 32
-0.235276 -0.387129 0.093445 128 123 120
-0.129201 0.005726 0.109122 42 39 42
-0.169544 -0.240040 0.092755 42 39 42
-0.216876 -0.333872 0.094807 64 57 49
-0.043931 -0.296378 0.056646 85 66 55
-0.038034 -0.090488 0.072271 41 38 42
-0.035387 -0.335511 0.055968 88 68 55
-0.109460 -0.160505 0.084762 41 38 40
-0.206730 -0.307023 0.095229 54 56 47
-0.053994 -0.168811 0.067508 40 39 40
-0.028718 -0.216608 0.058573 60 67 55
-0.086329 -0.177578 0.075377 41 40 42
-0.192779 -0.208554 0.102993 88 73 73
-0.041527 -0.143833 0.067087 44 42 45
-0.165886 -0.200323 0.096734 43 41 45
-0.143753 0.082306 0.113975 61 61 54
0.045231 -0.082062 0.056891 57 62 51
-0.110772 -0.070952 0.096931 42 39 42
-0.063282 0.093554 0.103193 68 64 68
-0.073321 0.129831 0.108703 173 173 171
-0.140416 -0.019964 0.109145 47 45 47
-0.022922 -0.325151 0.056206 56 60 52
-0.104039 0.057954 0.108651 102 98 99
-0.041617 -0.195215 0.062189 50 45 52
-0.089064 0.003703 0.099851 66 66 69
-0.128784 -0.051617 0.103890 42 39 42
0.022782 -0.015151 0.064995 88 70 60
-0.105975 0.180348 0.114050 36 32 32
-0.055111 -0.392983 0.056094 73 81 83
-0.100565 -0.082945 0.092386 41 39 42
-0.048404 -0.177250 0.065285 46 43 46
-0.155142 -0.026407 0.111025 87 69 58
-0.260791 -0.373751 0.102183 126 121 118
0.031269 -0.072031 0.058892 65 70 59
-0.062535 0.050360 0.098089 43 39 40
-0.044614 -0.420184 0.057657 133 97 72
-0.132856 0.169443 0.113423 46 41 40
-0.232341 -0.252627 0.107575 94 77 70
0.035710 -0.051328 0.059542 105 79 68
-0.121054 -0.118758 0.093905 41 39 41
-0.043481 -0.005541 0.085032 41 38 40
-0.170457 -0.254176 0.091176 41 39 41
-0.123159 -0.231017 0.079549 42 39 42
-0.093323 -0.131907 0.083569 42 39 42
-0.136830 0.133612 0.113955 175 173 171
-0.106574 0.060969 0.109330 39 38 38
-0.045253 -0.119782 0.070765 40 38 39
-0.068899 0.049054 0.099687 42 41 40
0.024269 -0.001036 0.066067 72 66 55
-0.046698 -0.217616 0.061326 47 46 51
-0.155872 -0.203526 0.093382 42 41 42
-0.292686 -0.354427 0.110451 53 56 47
-0.131757 -0.126764 0.096041 43 40 42
-0.019956 -0.072662 0.069426 54 45 40
-0.137116 -0.219817 0.085412 41 40 42
-0.144708 0.156743 0.112939 175 173 171
-0.249087 -0.393455 0.096704 106 103 101
-0.056360 -0.303304 0.057446 79 60 54
-0.255126 -0.372240 0.100890 85 82 75
-0.122145 -0.250855 0.076633 41 38 41
-0.038438 -0.291790 0.056423 82 63 54
-0.081274 -0.238191 0.066852 42 39 42
0.017416 -0.008039 0.066996 85 67 57
-0.136292 0.145305 0.113799 175 173 171
-0.119391 -0.034021 0.103456 42 39 41
-0.166174 -0.230141 0.093027 43 40 42
-0.060626 -0.044445 0.085146 142 139 141
-0.262320 -0.359436 0.104071 51 52 44
-0.036094 -0.160024 0.064188 41 38 40
-0.150334 -0.008164 0.111439 77 60 51
-0.102936 0.089415 0.110704 40 38 40
-0.143823 -0.169979 0.094106 44 42 47
-0.033094 -0.284032 0.056315 94 73 63
-0.026448 -0.162793 0.061960 78 70 62
-0.124479 -0.106624 0.096448 43 40 42
-0.237588 -0.223624 0.110649 57 62 51
-0.034330 -0.360844 0.056405 115 104 102
-0.051681 0.050000 0.094920 41 38 40
0.025763 -0.013930 0.064443 91 73 64
-0.068363 -0.120674 0.077348 42 39 42
-0.043420 0.022952 0.088858 39 37 38
-0.259344 -0.334349 0.105858 55 57 49
-0.102031 -0.089538 0.091967 42 39 42
-0.017794 -0.250449 0.056274 58 64 53
0.002491 -0.070901 0.064156 81 65 58
-0.057756 -0.334756 0.056469 70 54 48
-0.102555 0.101412 0.111371 68 53 47
-0.152395 -0.132928 0.101019 46 46 43
-0.035396 -0.227946 0.058811 50 48 53
-0.039354 -0.189824 0.062201 43 41 45
-0.198054 -0.173862 0.107513 55 61 50
-0.143256 0.030403 0.112541 137 103 100
-0.146494 -0.031216 0.109357 44 40 42
-0.205711 -0.225631 0.104332 66 54 55
-0.256347 -0.384826 0.099768 103 114 115
-0.122057 -0.025649 0.104934 42 39 41
-0.060549 -0.005776 0.090326 138 136 136
-0.153140 -0.172109 0.096568 43 41 44
-0.158956 -0.187153 0.096374 37 35 36
-0.236633 -0.286384 0.105411 95 72 62
-0.150180 -0.038638 0.109440 55 46 43
-0.126155 0.107794 0.113740 175 173 171
-0.233977 -0.384016 0.093458 123 118 115
-0.169457 -0.086083 0.109236 100 78 65
-0.071954 0.053459 0.101007 39 37 38
-0.065110 0.090514 0.103319 53 50 53
-0.174091 0.001667 0.113833 77 82 69
-0.083447 -0.241020 0.067087 42 40 42
-0.140645 0.128943 0.113901 175 173 171
-0.008374 -0.007513 0.074027 90 74 62
-0.069153 -0.093031 0.081256 43 40 42
-0.256970 -0.301179 0.108286 55 57 49
-0.058296 0.024003 0.093551 40 38 39
-0.101672 0.064329 0.108721 98 95 96
-0.229527 -0.424244 0.086740 52 54 45
-0.047617 -0.077741 0.076675 47 44 46
-0.143421 0.104958 0.114054 175 173 171
-0.113401 -0.200028 0.080665 41 38 40
-0.231504 -0.249873 0.107644 97 78 68
0.028216 -0.057910 0.060279 91 72 60
-0.084233 -0.106511 0.084154 42 40 42
-0.114151 -0.116799 0.092077 41 39 41
-0.144931 -0.127649 0.099637 41 38 40
-0.291597 -0.392492 0.107362 54 56 47
-0.064571 -0.015919 0.090217 138 135 136
-0.150512 0.038256 0.113424 100 78 65
-0.047807 -0.314494 0.056399 84 64 56
-0.095548 -0.249098 0.069291 40 38 40
-0.044119 -0.147313 0.067358 46 45 50
-0.145933 -0.248709 0.084268 41 38 40
0.034328 -0.071359 0.058521 63 68 57
-0.234704 -0.262224 0.107220 97 77 66
-0.102427 -0.115426 0.088647 42 39 42
-0.159839 -0.194085 0.095762 42 40 44
-0.227284 -0.361096 0.094411 70 55 47
-0.117742 0.133172 0.113847 75 59 55
-0.056750 -0.085485 0.078432 42 39 42
-0.175294 0.022635 0.114059 86 92 78
-0.096718 0.012347 0.102801 132 130 130
-0.072602 0.106847 0.106621 175 173 171
-0.089993 -0.278885 0.064772 39 38 37
0.029247 0.018075 0.066856 52 57 48
-0.185701 -0.210393 0.100991 43 41 46
-0.016178 0.038642 0.082448 75 60 51
-0.199267 -0.098303 0.112590 63 68 57
-0.152814 -0.106181 0.104008 51 43 38
-0.154245 0.022401 0.113204 97 74 61
-0.124464 0.079659 0.112777 46 44 46
-0.082459 -0.023124 0.094694 139 136 137
-0.137253 -0.125201 0.097806 45 42 44
-0.155504 -0.209874 0.092444 42 41 42
-0.039355 0.154363 0.103751 52 54 49
-0.161434 -0.115924 0.105034 72 57 49
-0.066242 0.171788 0.110531 48 50 44
-0.233812 -0.249762 0.108100 57 58 49
-0.049288 -0.106767 0.073478 43 40 44
-0.150677 -0.123932 0.101581 53 46 47
-0.088280 0.171710 0.113082 36 34 31
-0.097695 -0.191724 0.076950 41 40 42
-0.054342 -0.086596 0.077553 42 39 42
-0.007647 -0.054882 0.068217 78 72 65
-0.011904 -0.147733 0.060509 58 64 54
-0.049925 -0.200075 0.063447 46 43 49
-0.133113 0.049737 0.112355 41 38 40
-0.077422 0.049048 0.101929 39 36 37
-0.240484 -0.282015 0.106653 99 77 65
0.019354 -0.088143 0.059614 63 67 56
-0.050130 -0.196989 0.063774 45 43 48
-0.106187 -0.224447 0.075271 41 40 42
-0.078787 -0.281064 0.062216 40 39 40
-0.129469 -0.181672 0.088169 40 39 40
-0.022461 -0.323863 0.056202 55 60 50
-0.059370 -0.376236 0.055933 46 48 39
-0.179597 0.041812 0.113852 97 104 87
-0.115855 0.020030 0.107795 40 38 39
-0.125677 0.048055 0.111385 40 38 39
-0.243238 -0.294392 0.106103 101 76 65
-0.056324 -0.172387 0.067706 40 38 42
-0.078428 0.059738 0.103330 86 82 83
-0.096842 0.122316 0.111790 57 48 42
-0.141651 -0.076015 0.104443 42 41 42
-0.180439 -0.038298 0.113205 70 75 63
-0.213766 -0.287099 0.099653 83 64 53
-0.112028 0.079980 0.111401 44 41 43
-0.071566 0.005153 0.095079 37 35 36
-0.007886 0.002395 0.075136 93 75 64
-0.102412 -0.015961 0.101142 134 132 132
-0.273197 -0.360946 0.106371 48 50 43
-0.023298 -0.101965 0.067045 76 64 58
-0.028404 -0.364064 0.056908 56 59 51
-0.084320 -0.293576 0.062243 45 47 43
-0.280684 -0.368318 0.107264 50 51 43
-0.062252 0.140775 0.107496 175 173 171
-0.112946 0.081912 0.111626 45 42 44
-0.069564 -0.072285 0.084183 105 101 98
-0.097617 0.007110 0.102462 131 129 129
-0.140921 -0.026477 0.108735 47 44 49
0.041611 -0.070019 0.057723 62 68 57
-0.044796 -0.195198 0.062822 48 46 52
-0.069995 -0.090319 0.081883 43 40 42
-0.020535 0.009867 0.079943 83 64 55
-0.151140 -0.151535 0.098513 45 44 49
0.006607 -0.050621 0.065195 71 56 49
-0.070763 -0.406657 0.055929 52 53 45
-0.244355 -0.310014 0.104852 97 74 63
0.006359 -0.111684 0.060060 59 64 53
-0.113851 0.130495 0.113612 54 46 43
-0.049607 -0.198258 0.063546 45 43 48
-0.140886 -0.185762 0.091157 43 41 44
-0.132195 0.020984 0.110666 43 39 41
-0.158302 -0.190751 0.095734 40 39 42
-0.237947 -0.405199 0.091894 87 85 82
-0.151689 -0.204592 0.091977 41 40 42
-0.063588 -0.223983 0.064167 43 41 46
-0.160372 -0.288595 0.083401 40 37 39
0.016408 -0.011842 0.066840 85 67 56
-0.097432 0.007522 0.102460 131 129 129
-0.105036 -0.254613 0.071212 41 38 40
-0.151594 -0.220296 0.089867 42 41 42
-0.074866 -0.194503 0.070055 40 39 40
-0.126601 0.102372 0.113645 175 173 171
-0.121379 0.155674 0.114056 41 38 38
-0.121230 -0.038575 0.103426 43 40 42
-0.032818 -0.173442 0.062304 70 70 64
-0.093582 0.122129 0.111366 63 51 46
-0.021383 -0.019691 0.076317 70 76 65
-0.049260 -0.143745 0.069068 39 38 39
-0.113927 -0.089107 0.095578 41 39 41
-0.244442 -0.421403 0.091744 92 89 77
-0.136584 -0.071469 0.103707 46 43 48
-0.060350 -0.312205 0.057461 70 58 50
-0.108425 -0.195802 0.079689 40 39 40
-0.059554 0.096416 0.102576 175 173 171
-0.170819 -0.058989 0.111248 104 81 68
0.037130 -0.012056 0.062239 65 70 58
-0.238227 -0.287530 0.105655 97 74 62
-0.254002 -0.325832 0.105490 54 55 47
-0.057212 -0.288117 0.058274 76 58 49
-0.090563 0.169461 0.113185 36 34 31
-0.269082 -0.372866 0.104300 114 108 107
-0.052864 -0.111192 0.073960 46 43 49
-0.003190 -0.044030 0.068274 58 61 53
-0.172362 -0.257471 0.091325 40 38 40
-0.038897 -0.082722 0.073472 40 37 39
-0.032245 -0.386521 0.057435 92 107 111
-0.236948 -0.366040 0.096614 80 60 53
-0.188795 -0.024973 0.113942 72 78 66
0.023046 -0.088653 0.059039 64 67 57
-0.006499 -0.043920 0.069146 62 64 56
0.005398 -0.018960 0.068850 95 75 65
-0.085390 -0.220809 0.069834 40 39 40
-0.048595 -0.121875 0.071438 40 37 38
0.002695 -0.053852 0.065781 68 54 48
0.032263 -0.048383 0.060289 101 77 66
-0.263076 -0.345798 0.105593 52 53 44
-0.050847 -0.405965 0.056586 77 93 102
-0.042145 -0.065169 0.076661 39 37 38
-0.023999 -0.142747 0.063197 77 54 46
-0.038492 -0.188317 0.062160 43 41 45
-0.165984 -0.259373 0.089103 40 39 40
-0.168572 0.044282 0.114060 99 106 90
-0.107269 -0.084997 0.094137 42 39 42
0.017054 -0.080252 0.060534 61 61 51
-0.052590 0.041278 0.094073 40 37 39
-0.204354 -0.259337 0.100341 41 39 41
-0.248587 -0.312083 0.105605 92 72 64
-0.138406 -0.060093 0.105272 44 43 46
-0.074953 -0.163858 0.073778 41 40 42
-0.117976 0.086916 0.112449 55 52 51
-0.256551 -0.322185 0.106387 53 55 46
-0.272305 -0.358994 0.106361 49 50 42
-0.021174 0.029831 0.082822 77 59 50
-0.243610 -0.318225 0.103849 97 74 64
-0.137192 -0.154028 0.094180 43 41 43
-0.123844 -0.255558 0.076534 39 38 40
-0.167375 -0.250158 0.090762 41 39 42
-0.121404 0.141720 0.114036 64 53 47
-0.036223 -0.189480 0.061632 44 43 47
-0.017764 0.025470 0.081171 80 61 51
-0.056533 0.034980 0.094438 41 39 40
0.033023 -0.058991 0.059449 103 77 67
-0.097064 0.145894 0.112883 36 34 32
-0.016953 -0.187978 0.058650 58 63 54
-0.061125 0.052920 0.098003 75 72 74
-0.215164 -0.257445 0.103311 93 74 67
-0.068498 -0.280054 0.060428 42 41 42
-0.018144 -0.367891 0.058099 57 60 50
-0.136485 0.043835 0.112442 41 38 40
-0.107813 0.021154 0.106250 38 35 36
-0.146566 0.045238 0.113361 119 90 82
-0.250651 -0.246795 0.111088 56 61 50
-0.198622 -0.212213 0.104025 44 42 46
-0.093281 -0.098366 0.088089 41 38 40
-0.162799 -0.064736 0.109668 91 72 62
-0.022034 -0.165232 0.060955 62 64 54
-0.109608 -0.199843 0.079516 40 39 40
-0.104049 0.147214 0.113458 36 33 32
-0.148473 -0.129238 0.100404 42 40 43
-0.075166 -0.243208 0.064899 43 40 43
-0.228310 -0.304610 0.101504 83 65 53
-0.076127 -0.384395 0.056302 53 55 46
-0.109112 -0.185468 0.081284 41 38 40
-0.038432 -0.269783 0.057118 80 60 53
-0.007306 -0.003651 0.074201 95 77 66
-0.249449 -0.291343 0.107656 56 59 50
-0.058530 -0.304098 0.057634 78 60 51
-0.148882 -0.177936 0.094590 44 42 46
-0.013447 -0.081447 0.066799 56 46 42
-0.023724 -0.310987 0.055988 56 61 51
-0.125292 -0.019802 0.106210 42 39 42
-0.064426 -0.375374 0.056013 51 52 44
-0.147196 -0.268396 0.082005 39 37 38
-0.126633 0.164219 0.113858 42 39 38
-0.131232 -0.160794 0.091499 43 40 42
-0.260868 -0.333527 0.106264 55 56 48
-0.165914 -0.090904 0.108218 93 72 61
-0.037945 -0.314649 0.056006 94 72 60
-0.249064 -0.326894 0.104255 88 70 61
-0.246492 -0.439158 0.090020 115 79 51
-0.119030 -0.181199 0.084964 41 38 40
-0.041605 -0.219755 0.060281 51 49 55
-0.088217 -0.158753 0.078391 41 40 42
-0.103088 0.189661 0.114059 34 32 29
-0.252234 -0.350889 0.102512 72 66 55
-0.120828 0.069324 0.111925 42 40 42
-0.176154 -0.249708 0.093490 41 40 42
-0.131058 0.047424 0.112017 40 38 39
-0.087473 -0.084587 0.088132 43 40 42
-0.091127 -0.054069 0.093298 77 74 74
-0.106667 -0.116443 0.089826 42 39 42
-0.018298 -0.115770 0.064473 83 74 66
-0.130443 -0.233115 0.081526 42 39 42
-0.033799 -0.225855 0.058717 62 57 63
-0.052009 -0.247945 0.059995 44 43 45
-0.165574 -0.008193 0.113057 109 83 71
-0.174097 -0.184774 0.100846 44 41 45
-0.284441 -0.326845 0.110985 55 56 48
-0.135734 -0.141240 0.095379 44 42 43
-0.239424 -0.433428 0.088594 87 75 64
-0.172309 -0.027614 0.112919 93 86 72
-0.044687 0.009650 0.087464 39 37 38
-0.178890 -0.268889 0.091815 39 38 39
-0.133545 -0.249636 0.080276 41 38 40
-0.157871 -0.263392 0.086027 40 37 38
-0.012905 -0.341159 0.057413 55 60 50
-0.131887 -0.154064 0.092582 41 40 42
-0.106341 -0.046035 0.098709 41 39 40
-0.040384 -0.050295 0.078070 39 36 38
-0.124399 -0.136350 0.092628 42 39 42
-0.046459 -0.105857 0.072780 40 37 39
-0.054075 -0.245502 0.060509 44 42 47
0.037359 -0.048932 0.059449 104 77 65
-0.074603 0.038306 0.099975 40 38 39
-0.099159 0.136711 0.112712 39 37 35
-0.049166 -0.352503 0.055934 70 55 47
-0.227373 -0.441687 0.083704 52 55 46
-0.029441 0.019533 0.084020 128 93 91
-0.016248 -0.183476 0.058816 57 62 53
-0.211949 -0.249358 0.103378 139 111 112
-0.156993 -0.049253 0.109812 83 68 59
-0.044999 -0.064952 0.077551 43 40 42
-0.140161 -0.206078 0.088220 42 41 42
-0.153103 -0.119869 0.102641 62 50 44
-0.022677 -0.022477 0.076344 75 81 69
-0.109125 -0.009206 0.103562 40 38 39
-0.121027 0.097203 0.113131 175 173 171
-0.235508 -0.297884 0.104009 92 70 59
-0.169501 -0.233212 0.093629 43 39 42
0.002729 -0.068415 0.064340 77 63 56
-0.051806 0.111270 0.102239 175 173 171
-0.142125 0.076227 0.113840 98 88 80
-0.026708 -0.114455 0.066561 75 66 60
-0.001060 -0.097066 0.062539 63 69 58
-0.238033 -0.380043 0.095172 123 117 116
-0.099952 -0.041599 0.097455 144 140 142
-0.133114 -0.273100 0.077046 54 57 49
-0.023097 -0.266880 0.056193 59 65 54
-0.223533 -0.434859 0.083424 51 53 47
-0.094871 -0.001115 0.100844 134 132 131
-0.114631 0.125522 0.113534 68 55 49
-0.035263 -0.236511 0.058312 57 58 54
-0.007930 -0.124752 0.061563 58 64 53
-0.271064 -0.421649 0.099452 108 106 108
-0.206522 -0.184974 0.108224 57 63 51
0.054264 -0.061024 0.056894 61 66 55
-0.257159 -0.247876 0.111867 57 63 51
-0.122675 0.024383 0.109385 40 37 39
-0.126230 0.058127 0.111992 40 38 39
-0.119543 0.130047 0.113864 73 56 49
-0.064707 -0.066973 0.083379 145 143 144
-0.201218 -0.203504 0.105486 108 93 97
-0.232753 -0.251889 0.107719 94 77 70
-0.109099 -0.223740 0.076228 41 39 41
-0.067490 -0.099787 0.079837 42 39 42
-0.028880 -0.347404 0.056386 62 59 51
-0.036080 -0.375667 0.056704 121 113 112
-0.213867 -0.270301 0.101595 81 62 53
0.040413 -0.071998 0.057760 65 70 59
-0.009663 -0.312514 0.056646 56 62 51
-0.105097 0.034671 0.106904 40 38 39
-0.046656 -0.116879 0.071498 40 38 39
-0.158760 -0.135936 0.102321 61 66 55
-0.239071 -0.321008 0.102443 94 72 60
-0.154761 -0.225947 0.090093 43 41 42
-0.118653 0.124931 0.113735 79 59 54
-0.014502 -0.303097 0.056161 57 62 51
-0.035137 -0.061395 0.075058 39 37 38
-0.265949 -0.370649 0.103784 115 107 104
-0.095774 -0.254976 0.068686 39 37 38
-0.161970 -0.199860 0.095658 42 41 44
-0.187345 -0.235886 0.098464 42 40 44
-0.143320 -0.189251 0.091442 43 41 45
-0.061164 0.056233 0.098414 100 99 100
-0.102448 -0.191167 0.078467 41 39 42
-0.156923 -0.109000 0.104685 62 51 45
-0.125306 0.003484 0.108238 41 39 41
-0.035574 -0.300052 0.056122 91 70 58
-0.073329 -0.104160 0.081062 42 39 42
-0.205578 -0.252209 0.101470 42 39 43
-0.115708 -0.284772 0.070571 54 59 50
-0.196487 -0.212337 0.103501 46 43 46
-0.179502 -0.077559 0.111338 66 68 57
-0.096357 -0.018079 0.099280 134 133 133
-0.044090 0.062899 0.094319 43 41 42
-0.138607 -0.127606 0.097895 44 42 44
-0.022449 -0.324774 0.056220 56 60 52
-0.138704 -0.034135 0.107695 43 41 45
-0.036177 -0.251339 0.057677 92 77 68
-0.103181 0.022067 0.105320 115 112 112
-0.221926 -0.212044 0.108909 58 61 51
-0.104986 0.197603 0.114039 35 32 30
-0.200229 -0.205056 0.105113 139 112 113
-0.255751 -0.371073 0.101185 50 50 42
-0.115311 0.084951 0.112067 47 46 46
-0.115964 0.048747 0.110013 40 37 39
-0.212366 -0.196402 0.108396 58 60 51
-0.066781 -0.222760 0.064998 41 40 42
-0.053726 -0.312456 0.056858 79 61 53
-0.162601 -0.063943 0.109692 91 72 62
-0.012481 -0.089798 0.065704 69 56 51
-0.097873 -0.033731 0.097827 138 136 137
-0.155103 -0.235911 0.088866 42 40 42
-0.097794 -0.230706 0.072068 42 39 42
-0.040579 -0.365373 0.056193 105 97 96
-0.158676 -0.086646 0.107160 66 54 47
-0.120718 0.011282 0.108005 41 38 40
-0.187483 -0.267114 0.094630 40 39 40
-0.254362 -0.399965 0.097408 142 132 132
0.002368 -0.096051 0.061955 63 68 57
-0.040478 0.051981 0.091812 43 40 42
-0.161030 -0.159870 0.100229 46 44 49
-0.049901 -0.228786 0.061035 48 45 51
-0.104637 -0.220879 0.075267 40 39 40
-0.031575 -0.183396 0.061260 58 61 55
-0.105958 -0.033220 0.100111 39 37 38
-0.171250 -0.041898 0.112205 109 82 71
-0.032194 -0.270943 0.056594 98 77 67
-0.091257 -0.081523 0.089719 42 39 42
-0.085703 -0.257263 0.065937 39 37 38
-0.059599 -0.285549 0.058724 76 59 51
-0.088756 -0.156935 0.078796 41 39 41
-0.149294 0.087868 0.114062 70 66 66
-0.280218 -0.344058 0.109147 51 53 43
-0.057325 0.041950 0.095557 40 37 39
-0.064752 0.110577 0.105264 175 173 171
-0.054340 -0.398327 0.056213 78 90 93
0.006240 -0.032929 0.067104 80 65 56
-0.136125 -0.233727 0.083219 42 39 42
-0.019515 -0.126245 0.063752 59 54 47
-0.087637 0.033647 0.102827 39 37 37
-0.041397 -0.322899 0.056004 87 67 55
-0.152979 0.062721 0.113992 95 74 63
-0.059431 -0.028394 0.086943 142 139 140
-0.060106 -0.353184 0.056184 57 59 51
-0.046730 -0.351977 0.055930 76 57 50
-0.187900 -0.083386 0.112065 67 72 61
-0.243973 -0.341474 0.101442 86 66 54
-0.020800 -0.156127 0.061440 77 57 47
-0.062474 0.134967 0.107035 174 173 171
-0.016668 0.012640 0.079120 86 68 57
-0.029354 -0.335923 0.056134 86 70 59
-0.094275 -0.120632 0.085394 41 38 40
-0.167736 -0.057044 0.110938 99 77 65
-0.100754 0.125388 0.112384 48 42 39
-0.144876 -0.010871 0.110508 83 66 67
-0.061647 -0.313083 0.057555 60 59 49
-0.244481 -0.387321 0.096138 132 125 122
0.020193 -0.048891 0.062445 95 75 63
-0.098707 -0.195552 0.076758 41 38 40
-0.077784 -0.199542 0.070256 40 39 40
-0.102791 -0.242245 0.072074 42 39 41
-0.217169 -0.259273 0.103606 85 66 58
-0.068343 0.136451 0.108311 173 173 171
-0.064852 0.033530 0.096686 40 38 39
-0.217061 -0.222725 0.107097 95 78 70
-0.106594 -0.173194 0.082149 41 38 40
-0.121488 -0.106413 0.095606 42 39 42
-0.144577 -0.191073 0.091586 42 40 44
-0.036937 0.012495 0.085420 40 38 39
-0.209528 -0.182437 0.108975 57 62 51
-0.113175 0.102927 0.112659 90 72 62
-0.024617 -0.168443 0.061168 58 63 53
-0.064032 -0.241725 0.062654 44 42 47
-0.059794 -0.270272 0.059705 40 39 40
-0.138957 -0.143555 0.096028 41 39 40
-0.184238 -0.152374 0.106584 57 59 50
-0.031138 -0.160886 0.063055 70 52 44
-0.052102 -0.312599 0.056730 81 63 55
-0.041178 -0.239059 0.058947 47 47 51
-0.239405 -0.410839 0.091597 94 95 93
-0.072696 -0.155479 0.074172 41 40 42
-0.153613 0.156180 0.112069 175 173 171
-0.127810 -0.217754 0.082773 42 39 42
-0.004563 0.046098 0.079837 57 62 53
-0.067777 0.153152 0.109494 51 52 44
-0.112814 0.099411 0.112473 90 71 62
-0.110704 0.081506 0.111313 44 42 44
-0.078093 -0.086705 0.084908 41 39 40
-0.018347 -0.134746 0.062746 83 60 49
-0.089011 0.177063 0.113313 36 34 31
-0.086237 -0.120810 0.082849 41 38 40
-0.136423 -0.103741 0.100123 40 37 39
-0.122821 -0.136828 0.092087 42 39 42
-0.082630 0.033130 0.101504 40 38 40
-0.222955 -0.325522 0.097607 86 67 55
-0.129519 -0.209699 0.084398 42 39 42
-0.151112 -0.245670 0.086304 41 40 42
-0.125751 0.070501 0.112520 43 40 42
-0.063393 0.081719 0.101945 47 44 47
-0.110757 0.077000 0.111056 43 40 42
-0.089588 0.172562 0.113213 36 34 31
-0.111477 -0.183050 0.082347 41 38 40
-0.079103 0.041627 0.101539 40 37 37
-0.038614 -0.048807 0.077727 39 36 38
-0.082053 0.126464 0.109950 59 52 50
-0.110830 -0.159968 0.085264 41 38 40
-0.166999 -0.131277 0.104793 58 63 52
-0.225706 -0.299317 0.101421 81 62 52
-0.125997 -0.177357 0.087666 40 39 40
-0.063008 0.044052 0.097455 40 38 39
-0.205868 -0.237444 0.103148 43 41 45
-0.044590 -0.059003 0.078207 44 41 43
-0.169884 -0.007971 0.113386 87 85 74
-0.100096 -0.170961 0.080427 40 39 40
-0.101538 0.113797 0.111913 68 54 49
-0.067690 -0.146705 0.073818 40 39 40
-0.254743 -0.370289 0.101010 83 81 72
-0.106281 -0.054211 0.097707 150 149 150
-0.247417 -0.276581 0.108482 56 60 49
-0.143622 0.010647 0.111618 144 106 104
-0.045762 -0.302816 0.056582 86 66 55
-0.066994 -0.252771 0.062296 42 41 42
-0.120373 -0.060621 0.100801 43 41 43
-0.090733 -0.271245 0.065701 38 37 38
-0.218290 -0.259637 0.103837 87 67 57
-0.164268 -0.234670 0.091856 43 40 42
-0.103979 -0.072016 0.094822 44 41 43
-0.000488 -0.063580 0.065544 69 56 48
-0.120264 -0.222942 0.079730 42 39 42
-0.145937 -0.195021 0.091481 43 41 43
-0.127346 -0.222907 0.081933 42 39 42
-0.090044 -0.276235 0.065043 37 36 36
-0.034741 0.027339 0.086739 46 43 44
-0.183986 -0.253972 0.095270 42 39 42
-0.128107 -0.269997 0.075946 41 45 42
-0.094890 -0.207458 0.074106 40 39 40
-0.061561 -0.129164 0.074235 42 39 42
-0.185116 -0.230945 0.098436 42 41 43
-0.069205 -0.209149 0.066965 41 40 42
-0.118258 -0.072857 0.098805 41 39 41
-0.126440 -0.167711 0.089101 40 38 39
-0.098787 0.104224 0.111024 65 52 45
-0.229265 -0.220113 0.109576 57 62 51
-0.060473 -0.261022 0.060459 40 38 40
0.016244 -0.047882 0.063338 95 74 64
-0.028881 -0.132858 0.065199 72 50 40
-0.103155 -0.171864 0.081256 41 40 42
-0.115868 -0.217798 0.079060 41 39 44
-0.267975 -0.371757 0.104152 113 107 104
-0.140205 0.043757 0.112801 47 40 40
-0.084712 0.177641 0.112999 36 32 31
-0.036140 -0.388192 0.057135 145 139 137
-0.161574 -0.169681 0.099232 36 34 35
-0.188493 -0.046840 0.113504 69 75 63
-0.046451 -0.114930 0.071675 40 38 39
-0.151577 -0.296326 0.079625 55 58 51
-0.134108 0.000795 0.109598 43 40 42
-0.051530 -0.178697 0.065869 41 39 42
-0.155073 -0.187071 0.095254 38 37 38
-0.150050 0.106273 0.113913 175 173 171
-0.210382 -0.256825 0.102190 42 38 40
-0.025689 -0.038241 0.075217 65 71 57
-0.025252 0.021472 0.082970 71 56 48
-0.237366 -0.307125 0.103499 93 70 60
-0.069010 0.088760 0.104074 48 46 48
-0.245185 -0.390589 0.095933 130 124 120
-0.134358 -0.074202 0.102877 43 40 42
0.014505 -0.124634 0.058128 57 61 51
-0.042298 -0.318963 0.056074 87 67 55
-0.185976 -0.203771 0.101802 44 42 46
-0.057882 -0.218389 0.063460 44 42 46
-0.078638 0.009888 0.097708 102 100 101
-0.123000 0.088579 0.112988 92 95 98
-0.235861 -0.389506 0.093312 127 122 119
-0.155443 -0.118145 0.103400 65 52 46
-0.103759 0.168840 0.113897 36 33 32
-0.067862 -0.216514 0.065874 41 40 42
-0.144752 -0.214068 0.088577 42 41 42
0.002223 -0.021523 0.069394 88 71 62
-0.082398 -0.132206 0.080123 41 38 40
-0.067128 -0.124628 0.076461 42 39 42
-0.133742 -0.148160 0.093907 42 41 42
-0.175994 -0.170320 0.102921 59 64 53
-0.101944 -0.003734 0.102374 133 130 130
-0.102991 -0.187439 0.079127 40 39 40
-0.150699 -0.207336 0.091313 42 41 42
-0.207345 -0.228533 0.104421 66 56 54
-0.118536 -0.206677 0.081370 42 39 42
-0.062411 -0.201850 0.066082 42 41 42
-0.100661 -0.045478 0.097181 144 140 141
-0.012507 -0.158751 0.059832 54 57 48
-0.232056 -0.237938 0.108722 65 67 57
-0.082326 0.040814 0.102272 39 38 39
-0.088519 -0.064463 0.091143 37 38 42
-0.143441 -0.089461 0.103490 45 43 45
-0.026314 -0.220575 0.058061 59 64 53
-0.146208 -0.120676 0.100782 46 43 49
-0.039129 -0.029186 0.080484 39 37 38
-0.207783 -0.394101 0.083998 55 56 47
-0.070670 0.064530 0.101910 72 70 70
-0.050057 -0.212740 0.062361 47 45 49
-0.160383 -0.093473 0.106907 68 54 47
-0.149073 -0.200930 0.091661 41 40 43
-0.035302 -0.288660 0.056325 90 69 58
-0.040653 0.029447 0.088869 41 39 40
-0.045819 -0.191319 0.063378 48 46 51
-0.285506 -0.335939 0.110571 52 54 46
-0.121567 0.112738 0.113615 142 125 118
-0.225105 -0.303058 0.100843 83 63 52
-0.014281 -0.123540 0.062902 91 81 73
-0.081505 0.081901 0.106227 40 37 39
-0.057401 -0.203697 0.064736 43 41 46
-0.059736 -0.076084 0.080602 42 39 42
-0.057322 -0.146007 0.070973 44 42 47
0.012881 -0.067229 0.062327 91 72 61
-0.258324 -0.395600 0.099041 66 79 81
-0.262953 -0.348595 0.105296 50 53 46
-0.125116 -0.146559 0.091506 41 38 40
0.040020 -0.073594 0.057728 66 71 61
-0.037690 -0.040282 0.078566 39 37 38
-0.238970 -0.387370 0.094516 128 123 120
-0.088306 -0.052818 0.092609 145 143 145
-0.061436 -0.318918 0.057284 66 57 50
-0.062508 -0.292619 0.058705 59 59 50
-0.180730 -0.186396 0.102373 44 41 46
-0.014041 -0.039611 0.071696 69 75 62
-0.252943 -0.303011 0.107350 56 59 50
-0.246322 -0.323728 0.103930 95 73 61
-0.161514 -0.164982 0.099767 39 38 40
-0.080472 -0.097303 0.084220 40 38 40
-0.178333 -0.121724 0.108052 66 71 60
-0.005693 -0.131251 0.060662 59 65 54
-0.202547 -0.242142 0.101808 43 40 42
-0.098298 -0.143423 0.083572 40 39 40
-0.003100 -0.077841 0.064733 77 64 55
-0.085026 -0.154996 0.077912 41 40 42
-0.099496 0.173475 0.113813 36 34 32
-0.129102 -0.169792 0.089648 41 38 40
-0.194943 -0.265426 0.097013 41 39 41
-0.076023 -0.257533 0.063726 40 37 39
-0.189520 -0.249103 0.097474 42 39 42
-0.078853 0.098979 0.107210 106 85 80
-0.103737 -0.049738 0.097533 144 141 142
-0.116801 0.110204 0.113237 104 84 76
-0.111523 -0.091844 0.094523 42 39 42
-0.143920 0.134887 0.113650 175 173 171
-0.113366 0.097554 0.112447 90 71 62
-0.047521 -0.083036 0.075963 47 44 49
-0.101028 -0.098498 0.090475 42 39 42
-0.146492 -0.149753 0.097424 44 41 46
-0.106999 0.085747 0.111058 43 40 42
-0.142154 -0.029811 0.108698 40 38 43
0.005394 -0.066713 0.063918 81 67 58
-0.018566 0.021656 0.080909 81 64 53
-0.166973 -0.126403 0.105265 58 63 51
-0.146382 -0.133222 0.099378 41 38 41
-0.253200 -0.423641 0.094095 75 81 83
-0.064963 0.016521 0.094577 136 134 135
-0.158666 -0.042490 0.110531 87 71 62
-0.083720 0.045165 0.103087 64 62 67
-0.135051 -0.005822 0.109273 43 40 42
-0.157132 0.001597 0.112683 97 74 61
-0.160719 -0.018818 0.112141 95 75 62
-0.079981 0.039375 0.101515 39 37 38
-0.058707 -0.239418 0.061809 44 42 46
-0.061342 0.077408 0.100934 45 43 45
-0.077564 -0.000769 0.096085 68 61 62
-0.084848 0.072650 0.106088 39 37 39
-0.140263 -0.020795 0.109056 46 45 46
-0.186033 -0.100113 0.110898 63 69 57
-0.206239 -0.310500 0.094642 57 59 50
0.020999 -0.021644 0.064764 86 68 57
-0.055349 -0.381670 0.055967 110 106 103
-0.158408 -0.048388 0.110100 86 70 61
-0.014596 -0.007393 0.075874 77 60 53
-0.200186 -0.205699 0.105041 139 112 113
-0.252357 -0.319908 0.105692 57 59 50
-0.145646 -0.141412 0.098199 47 44 50
-0.062749 0.175516 0.110244 47 49 43
-0.072387 -0.120728 0.078566 42 39 42
-0.125797 0.091701 0.113310 175 173 171
-0.257933 -0.362837 0.102648 52 53 44
-0.051007 -0.011417 0.086598 41 39 40
-0.013774 -0.179415 0.058718 57 63 54
-0.176644 -0.056131 0.112122 70 74 62
-0.137183 -0.049119 0.106047 44 42 49
-0.018407 -0.318188 0.056275 56 61 51
-0.092724 0.016223 0.102219 38 36 38
0.024540 -0.018589 0.064269 87 68 58
-0.037674 -0.341965 0.055977 86 66 54
-0.119130 0.207146 0.113246 35 33 31
-0.175036 -0.260929 0.091686 40 38 40
-0.185749 -0.178280 0.104440 60 63 53
-0.061959 -0.141004 0.072877 41 39 41
-0.077247 0.036209 0.100441 40 37 39
-0.149557 -0.109919 0.102826 50 44 43
-0.107245 0.202455 0.113952 36 33 31
-0.138666 0.012849 0.111089 43 41 43
-0.184466 -0.312598 0.087708 61 63 53
-0.018167 -0.216966 0.057352 57 63 51
-0.103528 -0.145300 0.084958 40 39 40
-0.227893 -0.376375 0.092617 51 52 43
-0.027247 -0.103755 0.067839 59 53 48
-0.187977 -0.222538 0.100207 43 41 46
-0.130833 0.026347 0.110805 40 38 39
-0.200039 -0.173447 0.107936 55 60 49
-0.152132 -0.196466 0.093173 41 39 41
-0.040436 -0.383061 0.056622 134 127 125
-0.039881 -0.181662 0.063010 51 49 54
0.003307 -0.021602 0.069099 91 73 64
-0.035802 -0.212634 0.059840 46 45 46
-0.061406 -0.007897 0.090308 138 136 136
-0.091440 0.122088 0.111074 62 51 44
0.052430 -0.036382 0.058145 66 71 60
-0.038313 -0.442665 0.059761 120 95 68
-0.143180 0.006614 0.111336 94 69 75
-0.002701 0.005412 0.073999 90 72 61
-0.166378 -0.257983 0.089411 40 39 40
-0.249629 -0.276965 0.108855 57 61 50
-0.115535 -0.217287 0.079025 41 39 44
-0.241854 -0.315812 0.103678 97 75 64
-0.109524 0.110684 0.112630 80 61 56
-0.080478 -0.028508 0.093411 143 139 139
-0.159824 -0.116000 0.104658 70 56 48
-0.015387 -0.158680 0.060302 57 59 50
-0.106290 -0.288674 0.067658 54 56 47
-0.171197 -0.280125 0.087938 38 37 38
-0.115684 -0.000826 0.105902 40 38 39
-0.063094 -0.266836 0.060478 40 39 39
-0.015702 -0.037880 0.072373 67 74 60
-0.126652 -0.096215 0.098339 42 39 42
-0.027281 -0.037523 0.075782 66 74 61
-0.099345 0.061207 0.108036 43 38 39
-0.069721 -0.182608 0.070051 40 39 40
-0.090805 -0.106710 0.086189 41 38 40
-0.154239 0.102168 0.113826 175 173 171
-0.106975 -0.022549 0.101588 39 36 38
-0.073273 -0.099807 0.081629 42 39 42
-0.070975 -0.314288 0.058589 57 60 50
-0.031372 -0.060007 0.074131 68 63 56
-0.139032 -0.196560 0.089147 41 39 44
-0.199296 -0.216331 0.103762 48 43 46
-0.052892 -0.365944 0.055929 105 103 100
-0.050793 -0.334624 0.056133 79 60 51
-0.059718 0.072339 0.099920 44 42 43
-0.113108 0.161718 0.114041 38 34 33
-0.121188 -0.236414 0.078230 42 39 42
-0.074399 0.068351 0.103253 40 38 39
-0.234430 -0.289158 0.104638 88 66 54
-0.134155 -0.270048 0.077761 43 43 40
-0.053085 -0.425184 0.057048 70 88 94
-0.133179 -0.281258 0.076010 62 68 57
-0.067834 -0.087904 0.081534 42 39 42
-0.059698 -0.121536 0.074652 42 39 42
-0.195434 -0.077872 0.113041 65 70 58
-0.102335 -0.072306 0.094297 46 42 43
-0.273973 -0.403226 0.102302 132 128 129
-0.155340 -0.128781 0.102237 61 65 54
-0.049290 -0.108130 0.073310 43 40 44
-0.235316 -0.231765 0.109746 57 62 51
0.030805 -0.020860 0.062740 94 74 65
-0.134857 -0.053439 0.105119 46 43 46
-0.122795 -0.249782 0.076968 41 38 41
-0.154275 -0.038852 0.110096 79 64 55
-0.174881 -0.133307 0.106344 58 63 53
-0.078804 -0.176708 0.073290 41 40 42
-0.074128 -0.263560 0.062791 39 37 39
-0.103931 0.115186 0.112253 66 54 49
-0.090393 -0.108249 0.085851 41 38 40
-0.082530 -0.049632 0.091268 139 137 137
-0.056498 0.124186 0.104721 175 173 171
-0.203153 -0.196377 0.106570 58 61 51
-0.218542 -0.175684 0.110886 66 72 61
-0.156018 -0.256698 0.086351 40 38 40
-0.132545 -0.049819 0.104949 46 43 47
-0.111486 -0.037912 0.101039 42 39 42
-0.068321 -0.085526 0.082006 43 40 42
-0.176628 -0.144961 0.105633 57 63 51
-0.156240 0.098578 0.113807 175 173 171
-0.025094 -0.006964 0.079111 75 76 67
-0.065008 0.067617 0.100787 41 39 40
-0.106240 -0.185894 0.080335 40 39 40
-0.077475 -0.093240 0.083829 40 38 39
-0.273248 -0.348556 0.107482 50 51 43
-0.039696 -0.047973 0.078166 40 37 39
-0.136046 -0.035078 0.107081 44 41 44
-0.046454 -0.300094 0.056711 84 66 55
0.036988 -0.011864 0.062283 65 70 58
-0.029349 -0.283702 0.056153 98 77 67
-0.137094 0.045934 0.112594 40 38 39
-0.138666 -0.257918 0.080756 40 38 39
-0.036659 -0.018828 0.081105 40 37 39
-0.137374 -0.272501 0.078419 42 43 42
-0.132892 -0.278264 0.076310 61 67 55
-0.155217 -0.258034 0.085919 40 38 39
0.007081 -0.158100 0.057366 70 77 65
-0.036181 -0.140522 0.066135 44 42 42
-0.154842 -0.215220 0.091540 42 41 42
-0.255596 -0.374285 0.100782 44 45 43
-0.086455 -0.077622 0.088751 42 39 42
-0.079260 -0.166056 0.074758 41 40 42
-0.244115 -0.371623 0.097967 82 63 53
-0.253291 -0.349611 0.102912 72 66 55
-0.049478 -0.388210 0.056235 120 114 111
-0.078215 0.038231 0.100927 40 37 39
-0.048805 -0.057715 0.079671 43 40 42
-0.248406 -0.406132 0.094913 127 122 120
-0.050293 -0.208294 0.062791 46 44 49
-0.138690 -0.203558 0.088101 42 41 42
-0.048425 -0.247445 0.059473 46 45 47
-0.188497 -0.240630 0.098214 43 40 45
-0.119563 -0.178972 0.085432 41 38 40
-0.292315 -0.382222 0.108358 48 49 42
-0.061718 -0.156353 0.070955 44 41 45
-0.204963 -0.092139 0.113301 64 70 57
-0.228308 -0.376799 0.092687 51 52 43
-0.041164 -0.323699 0.055991 87 67 55
-0.028049 -0.217880 0.058416 59 66 54
-0.165036 -0.120774 0.105375 58 61 50
-0.098362 -0.042756 0.096860 141 138 140
-0.146138 -0.071211 0.105922 39 37 38
-0.123040 -0.115915 0.094859 42 39 42
-0.121384 -0.203906 0.082631 42 39 42
-0.079222 -0.089591 0.084871 41 38 40
-0.068387 0.017686 0.095731 134 133 132
-0.056954 -0.156795 0.069614 42 41 43
-0.098969 -0.032740 0.098254 138 136 137
-0.052219 -0.123213 0.072291 46 43 48
-0.134171 -0.231334 0.082931 42 39 42
-0.168500 -0.058894 0.110933 99 77 65
-0.216398 -0.176846 0.110498 59 64 53
-0.234549 -0.250076 0.108214 57 58 49
-0.033924 -0.066323 0.074080 48 44 46
-0.226650 -0.213981 0.109581 57 61 50
-0.038912 0.044438 0.090333 40 38 39
-0.189026 -0.156189 0.107232 60 62 53
-0.012413 -0.038847 0.071335 70 77 64
-0.048645 -0.031533 0.083136 41 38 40
-0.067335 -0.171325 0.070724 42 41 42
-0.086109 -0.180517 0.074938 41 40 42
-0.032933 -0.033285 0.078035 41 38 40
-0.147881 -0.064151 0.106937 41 39 40
-0.062997 -0.044986 0.085817 144 140 142
-0.146456 0.041900 0.113251 117 90 81
-0.255956 -0.361609 0.102285 50 50 42
-0.100420 -0.104466 0.089492 42 39 42
-0.185587 -0.063858 0.112704 67 72 61
0.016217 -0.051024 0.063062 94 74 63
-0.110546 -0.179055 0.082594 41 38 40
-0.058595 -0.329971 0.056658 66 57 50
0.001249 -0.013287 0.070611 97 78 67
-0.189659 -0.078370 0.112489 65 71 59
-0.134139 -0.101785 0.099735 40 38 40
-0.108838 0.099199 0.112030 77 60 54
-0.121547 0.066000 0.111840 41 39 40
-0.163077 -0.025075 0.112102 100 77 64
-0.246332 -0.342148 0.101973 90 70 58
-0.116887 -0.103941 0.094566 41 38 40
-0.121133 -0.028965 0.104390 42 39 41
-0.052926 0.095771 0.100803 175 173 171
-0.180346 -0.124844 0.108179 65 70 58
-0.189596 -0.137148 0.108904 60 66 54
-0.227866 -0.356474 0.095172 77 59 50
-0.046673 -0.091603 0.074619 40 38 39
-0.127126 0.022184 0.109965 40 38 39
-0.130082 -0.159958 0.091257 41 39 40
-0.111960 -0.092138 0.094615 42 39 42
-0.045984 0.025099 0.089941 41 38 40
-0.271802 -0.335434 0.108296 54 56 47
-0.052135 -0.040194 0.083059 42 39 42
-0.126766 0.050788 0.111676 40 38 39
-0.080749 0.154959 0.111539 37 34 33
-0.252463 -0.416108 0.094841 121 117 115
-0.056864 -0.306904 0.057343 79 61 54
-0.291173 -0.344089 0.110885 52 54 44
-0.049601 -0.022058 0.084717 41 38 40
-0.129456 -0.230553 0.081563 42 39 42
-0.223232 -0.369223 0.092139 50 51 46
-0.133507 0.082043 0.113541 55 52 53
0.003062 -0.040369 0.067096 76 70 63
-0.228648 -0.268317 0.105368 91 70 59
-0.051111 -0.205752 0.063184 46 43 48
-0.132715 -0.167363 0.091085 39 37 39
-0.210639 -0.176108 0.109635 57 63 51
-0.160498 -0.041143 0.110884 91 73 64
-0.036706 -0.389088 0.057119 142 134 133
-0.288321 -0.369827 0.108608 52 53 46
-0.085010 -0.034407 0.094006 140 139 138
-0.246838 -0.333724 0.103010 90 70 58
-0.248103 -0.315507 0.105166 95 72 65
-0.080747 -0.271108 0.063486 38 37 38
-0.080671 -0.075896 0.087178 39 36 38
0.007412 -0.040834 0.065993 57 45 36
-0.028104 0.020660 0.083754 116 86 80
-0.158047 -0.004523 0.112513 95 74 62
-0.086623 -0.095552 0.086386 42 39 42
-0.231612 -0.283722 0.104529 82 63 53
-0.122253 0.011362 0.108303 41 38 40
-0.054746 -0.025106 0.085919 41 38 40
-0.151950 0.015411 0.112756 95 73 60
0.026658 -0.046124 0.061438 102 80 68
-0.052465 -0.199114 0.064081 46 43 48
-0.123763 -0.233732 0.079374 42 39 42
-0.256472 -0.343696 0.104293 55 57 48
-0.188327 -0.227389 0.099738 42 40 45
-0.162768 -0.009360 0.112769 104 78 67
-0.154480 -0.059041 0.108647 67 54 49
-0.058074 0.134846 0.106099 175 173 171
-0.043215 -0.225419 0.060144 52 50 55
-0.085210 -0.029120 0.094743 134 132 132
-0.182335 -0.249254 0.095382 42 39 42
-0.102627 -0.199946 0.077369 41 38 40
-0.032520 -0.293275 0.056117 95 74 62
-0.039859 -0.081758 0.073871 40 37 39
0.008957 -0.099588 0.060493 66 71 60
-0.121105 0.149109 0.114061 45 41 40
-0.231792 -0.346782 0.097513 85 65 53
0.031363 -0.063715 0.059392 76 72 62
-0.021044 -0.006856 0.077886 65 59 51
-0.042641 0.031994 0.089827 40 38 39
-0.248746 -0.426740 0.092353 77 95 100
-0.061216 -0.152472 0.071278 44 41 46
-0.044035 -0.345585 0.055929 79 61 51
-0.082745 -0.095969 0.085114 42 39 42
-0.029622 -0.097495 0.069150 42 38 35
-0.137366 -0.006375 0.109625 43 41 43
-0.246197 -0.292797 0.106874 63 61 51
-0.052919 -0.133161 0.071287 42 40 45
-0.189618 0.001558 0.114038 76 81 69
-0.034606 -0.327660 0.055937 91 70 59
-0.103457 0.149684 0.113488 36 33 32
-0.075734 0.151991 0.110673 41 39 38
-0.088270 0.041996 0.103858 40 37 39
-0.217670 -0.266902 0.102925 77 59 51
-0.011026 -0.084054 0.065945 68 55 50
-0.044963 -0.287836 0.057009 83 64 53
-0.110235 -0.035208 0.101017 42 39 41
-0.078851 0.104509 0.107684 77 66 62
-0.040564 -0.342121 0.055939 81 63 52
-0.016511 -0.037183 0.072687 65 72 58
-0.171977 -0.181527 0.100656 52 51 57
-0.122763 0.115219 0.113731 115 93 83
-0.204548 -0.218030 0.104822 149 121 121
-0.139740 0.044087 0.112771 46 39 40
-0.097802 -0.128347 0.085456 41 38 40
-0.090362 -0.116320 0.084749 41 38 40
0.023867 0.018966 0.068304 54 59 50
-0.053777 -0.271833 0.058737 42 40 44
-0.073591 -0.324274 0.058371 61 63 53
-0.097676 -0.021784 0.099203 137 135 135
-0.061763 -0.039338 0.086194 143 140 140
-0.232145 -0.298480 0.103135 88 67 57
-0.247293 -0.297050 0.106720 89 72 62
-0.139799 -0.119298 0.099220 44 41 43
-0.163652 -0.116726 0.105456 74 59 50
-0.257599 -0.305612 0.108042 56 59 50
-0.148626 0.021483 0.112690 97 75 61
-0.190957 -0.265221 0.095889 40 39 39
-0.034854 -0.039795 0.077765 39 37 38
-0.164814 -0.153773 0.101906 60 66 55
-0.214115 -0.197431 0.108636 59 61 51
-0.105407 -0.269851 0.069531 55 57 49
-0.104267 -0.135680 0.086491 42 39 42
-0.256798 -0.270020 0.110530 57 61 51
-0.154060 -0.181459 0.095665 41 40 44
-0.171833 -0.082176 0.109916 103 79 67
-0.180219 -0.096199 0.110285 64 70 58
-0.158146 -0.218412 0.092128 43 41 42
-0.020718 -0.071787 0.069729 54 45 40
-0.261449 -0.272260 0.111062 58 61 51
-0.261135 -0.312829 0.108123 58 60 51
-0.117842 0.164840 0.114052 39 35 35
-0.159025 -0.040897 0.110686 88 71 62
-0.079372 -0.044643 0.090960 133 128 127
-0.045392 -0.157887 0.066549 47 45 50
-0.047378 -0.378528 0.056148 123 117 115
-0.031885 -0.156983 0.063563 68 50 45
-0.110568 0.046956 0.108972 40 38 39
-0.032242 -0.393229 0.057738 113 122 122
-0.018557 -0.100169 0.066083 83 70 62
-0.085203 -0.098499 0.085542 42 39 42
-0.153093 0.051926 0.113859 100 78 65
-0.125912 -0.111786 0.096219 42 39 42
-0.066662 -0.337946 0.057017 60 66 54
-0.140329 -0.012635 0.109669 48 45 48
-0.161105 -0.202189 0.095110 43 41 43
-0.146924 0.162417 0.112501 78 68 64
-0.120980 0.022028 0.108912 40 37 39
0.007315 -0.062249 0.063919 84 67 59
-0.129351 -0.188543 0.087206 41 39 41
-0.039207 -0.177260 0.063264 52 49 55
-0.125590 0.166963 0.113853 41 38 37
-0.072965 0.104880 0.106519 175 173 171
-0.023041 -0.145237 0.062780 79 56 47
-0.000956 -0.112439 0.061258 61 63 53
0.033135 -0.023202 0.062081 95 75 64
-0.032712 -0.003215 0.081973 39 37 38
-0.135880 0.113468 0.114058 175 173 171
-0.115628 0.038189 0.109197 40 37 39
-0.145272 -0.248282 0.084119 41 38 40
-0.120836 0.111541 0.113544 105 84 73
-0.176895 -0.244218 0.094419 41 40 42
-0.137178 -0.147603 0.094997 43 42 43
-0.269184 -0.340391 0.107374 62 63 55
-0.019579 -0.061629 0.070604 55 60 51
-0.057127 -0.385416 0.055965 83 81 75
-0.193685 -0.188111 0.105286 58 63 54
0.044473 -0.103326 0.056334 57 59 50
-0.083325 0.148574 0.111516 38 34 33
-0.062541 -0.220613 0.064256 43 41 45
-0.048697 -0.314912 0.056440 84 64 56
-0.048285 -0.171117 0.065875 46 43 47
-0.112142 -0.222184 0.077346 42 39 42
-0.059628 -0.049020 0.084214 148 146 147
-0.079372 -0.187172 0.072168 41 40 42
-0.073288 -0.141916 0.076073 41 40 42
-0.108552 -0.108102 0.091514 41 38 40
-0.283556 -0.330901 0.110604 53 55 46
-0.034101 -0.383113 0.057122 147 139 142
-0.120754 0.112552 0.113565 105 84 73
-0.211050 -0.312385 0.095816 55 59 48
-0.014517 0.027194 0.080394 81 63 53
-0.028113 -0.216049 0.058525 59 66 54
-0.251979 -0.388784 0.098096 99 96 93
-0.064848 0.036328 0.097031 40 38 39
-0.015663 -0.317367 0.056400 56 60 51
-0.110255 -0.075374 0.096233 42 39 42
-0.159307 -0.018910 0.111975 95 75 62
-0.177869 -0.280189 0.090004 39 36 38
-0.051281 0.018428 0.090687 40 37 39
-0.012899 -0.167595 0.059312 57 63 51
-0.068166 -0.075423 0.083320 40 38 40
-0.171272 -0.192957 0.099138 43 41 46
-0.096449 -0.045569 0.095958 140 137 139
-0.103185 0.142700 0.113266 37 34 33
-0.019456 0.002136 0.078585 80 61 53
-0.113798 0.010188 0.106516 40 38 39
-0.147117 -0.246996 0.084872 41 39 41
-0.129549 0.019658 0.110177 41 38 40
-0.065055 -0.250656 0.062096 43 41 45
-0.082338 -0.117301 0.082103 39 38 39
-0.081577 -0.226489 0.068193 42 39 42
0.002386 -0.028270 0.068589 81 66 58
-0.118069 -0.011004 0.105460 41 38 40
-0.126472 -0.050804 0.103418 41 39 41
-0.073117 0.023258 0.097778 131 129 131
-0.155986 -0.075734 0.107564 64 52 46
-0.111945 0.115330 0.113028 83 64 57
-0.107033 0.023223 0.106274 38 35 37
-0.261369 -0.328275 0.106846 55 56 48
-0.078921 0.087990 0.106236 43 40 42
-0.174711 -0.076626 0.110727 106 81 69
-0.061974 0.038617 0.096490 40 38 39
-0.248738 -0.243360 0.111028 56 61 50
-0.057386 -0.061943 0.081768 94 84 87
-0.230952 -0.321441 0.100291 91 70 58
-0.112100 -0.031421 0.101921 41 38 40
-0.151980 -0.030677 0.110289 72 60 51
-0.070436 -0.090381 0.082012 43 40 42
-0.061217 0.010648 0.092696 137 135 135
-0.150580 -0.049741 0.108667 48 42 39
-0.119044 -0.247878 0.076088 41 39 43
-0.030554 0.029946 0.085779 123 89 86
-0.164228 -0.097096 0.107371 87 68 59
-0.268516 -0.363465 0.105104 61 62 60
-0.065509 -0.108752 0.078043 42 39 42
-0.268554 -0.386879 0.102710 100 101 97
-0.059029 -0.184265 0.067102 41 39 42
-0.112923 0.028143 0.107905 40 38 39
-0.091528 -0.235326 0.069801 41 40 42
-0.126620 -0.101284 0.097717 43 40 42
-0.064255 -0.268810 0.060530 40 38 39
-0.035921 -0.303756 0.056079 91 70 59
-0.115142 0.139109 0.113846 42 39 38
-0.129486 0.118302 0.114003 175 173 171
-0.061342 -0.340649 0.056534 57 60 51
-0.118787 0.052544 0.110696 40 38 39
-0.039759 -0.125725 0.068617 46 45 46
-0.242331 -0.357106 0.099208 83 63 51
-0.072039 0.111112 0.106886 175 173 171
-0.251152 -0.312447 0.106130 55 56 47
0.024701 0.007970 0.066902 60 64 52
-0.200051 -0.155453 0.109352 57 62 51
-0.067962 0.027028 0.096774 130 125 125
-0.068910 0.104407 0.105598 175 173 171
-0.000797 -0.090098 0.063095 68 70 57
-0.021131 -0.277392 0.055990 57 63 51
-0.069410 0.159413 0.110199 50 50 45
-0.145557 -0.251340 0.083794 41 38 40
-0.047668 -0.396784 0.056535 113 108 107
-0.094648 0.003462 0.101302 68 61 64
-0.184748 -0.243044 0.096858 42 39 43
-0.130682 0.107300 0.113910 175 173 171
-0.180066 -0.071890 0.111723 66 72 61
-0.169347 -0.099708 0.108149 99 77 64
-0.019574 -0.036223 0.073684 76 82 71
-0.048410 -0.363069 0.055952 83 69 63
0.036740 -0.082003 0.057691 69 72 60
-0.149878 -0.288358 0.080162 50 52 50
-0.021125 -0.159698 0.061218 75 64 53
0.006324 -0.026062 0.067824 88 71 61
-0.006108 -0.004679 0.073725 97 78 67
-0.090860 0.052120 0.105464 40 38 39
-0.108538 -0.049885 0.098857 44 42 43
-0.043896 -0.312126 0.056250 87 67 55
-0.134050 0.194804 0.112388 48 50 44
-0.094659 0.090731 0.109487 40 38 40
-0.117942 0.050549 0.110442 40 38 39
-0.169926 -0.265684 0.089482 39 38 39
-0.156895 -0.108150 0.104763 62 51 45
-0.127417 -0.234184 0.080443 42 39 42
-0.095421 -0.208456 0.074136 40 39 40
-0.227455 -0.226146 0.108809 56 60 50
-0.150048 -0.231907 0.087829 42 41 42
-0.088453 -0.141950 0.080697 40 38 39
-0.089341 0.130264 0.111269 46 42 38
0.014954 -0.091990 0.060044 55 60 49
-0.054846 0.072028 0.098551 44 42 44
-0.168309 -0.277985 0.087324 39 37 38
-0.021773 -0.016646 0.076829 61 67 55
-0.158473 -0.095178 0.106352 61 50 43
-0.040598 -0.025929 0.081377 41 38 40
-0.103850 0.153642 0.113611 36 33 32
-0.250197 -0.381251 0.098505 137 129 127
-0.142822 -0.276178 0.079605 39 37 38
-0.147184 -0.254290 0.083905 40 38 40
-0.021341 0.046135 0.085079 73 56 49
-0.272222 -0.374470 0.104867 110 107 105
-0.074730 -0.206286 0.068675 40 39 40
-0.088438 -0.089029 0.087835 41 39 41
-0.027640 -0.117265 0.066493 74 66 60
-0.206761 -0.300980 0.096000 55 57 49
-0.062162 -0.403309 0.056019 49 50 45
-0.025506 0.061356 0.088438 87 71 64
-0.105484 -0.121731 0.088752 42 39 42
-0.048493 -0.348769 0.055940 75 57 49
-0.037756 -0.135927 0.066998 39 37 39
-0.166171 -0.090966 0.108262 93 72 61
-0.179511 -0.093395 0.110363 69 71 60
-0.104222 -0.095719 0.091823 42 39 41
-0.268140 -0.402839 0.100842 107 117 121
-0.081457 0.084341 0.106441 41 39 40
-0.159918 -0.156072 0.100370 57 59 53
-0.165252 -0.200304 0.096554 43 41 44
-0.243447 -0.313153 0.104328 98 75 64
-0.039439 -0.201858 0.061242 48 47 53
0.025736 -0.016028 0.064249 90 71 63
-0.156862 -0.108212 0.104749 62 51 45
-0.008082 -0.169218 0.058547 59 62 52
-0.034720 -0.370033 0.056629 145 137 136
-0.085877 -0.100838 0.085437 41 39 41
-0.088254 0.081621 0.107592 41 38 40
-0.098587 -0.059752 0.094791 144 139 141
-0.218788 -0.280513 0.101728 86 65 55
-0.143396 0.107983 0.114042 175 173 171
-0.142732 0.048113 0.113172 130 96 94
-0.122369 -0.117220 0.094494 43 40 42
-0.016024 -0.310689 0.056235 56 61 51
-0.034305 -0.098026 0.070339 50 45 42
-0.088483 0.082605 0.107721 41 38 40
-0.120917 -0.228839 0.079148 42 39 42
-0.189054 -0.101524 0.111233 63 69 57
-0.262804 -0.311434 0.108548 56 59 50
-0.038863 -0.008820 0.083140 40 38 40
-0.169581 -0.026162 0.112728 107 82 71
-0.082036 -0.190798 0.072479 41 40 42
-0.215786 -0.380877 0.088292 63 64 54
-0.145263 0.047471 0.113337 118 90 81
-0.043708 -0.413253 0.057442 105 89 60
-0.029435 -0.255864 0.056867 57 63 51
-0.132345 -0.031304 0.106653 44 43 44
-0.187446 -0.288342 0.091865 58 61 51
-0.110205 -0.205309 0.078975 40 39 40
-0.044666 -0.353512 0.055947 76 58 50
-0.155191 -0.134242 0.101598 61 67 56
0.013459 -0.045027 0.064198 88 69 60
-0.032212 -0.208783 0.059543 59 63 55
-0.086041 -0.020628 0.096059 141 137 140
-0.009210 -0.000702 0.075133 94 77 65
-0.088232 0.035054 0.103124 39 37 37
-0.154945 -0.034898 0.110464 85 68 60
-0.126318 -0.192874 0.085670 41 39 40
-0.134506 -0.013867 0.108557 42 39 42
-0.017701 0.017027 0.080021 83 65 54
-0.041400 -0.355408 0.056021 83 63 54
-0.105211 0.078428 0.110334 42 39 41
-0.249323 -0.406795 0.095099 127 122 120
-0.078639 0.078376 0.105264 42 39 41
-0.051290 -0.181365 0.065543 43 41 45
-0.172572 -0.104698 0.108351 104 79 68
-0.016946 -0.086035 0.067173 58 48 42
-0.102964 -0.037823 0.098755 138 136 134
-0.065694 0.080495 0.102394 47 43 46
-0.084880 0.136536 0.111028 42 39 39
-0.228498 -0.309821 0.100968 85 65 53
-0.088178 0.026788 0.102222 40 38 38
-0.080942 -0.167572 0.075060 41 40 42
-0.074350 -0.142051 0.076373 41 40 42
-0.273799 -0.346813 0.107739 50 51 43
-0.138299 0.104762 0.114048 175 173 171
-0.120976 0.136621 0.113990 73 57 52
-0.025803 -0.123197 0.065450 79 68 60
0.004924 -0.075236 0.063238 85 68 60
-0.134395 -0.214601 0.085264 41 40 42
-0.274350 -0.339801 0.108420 58 60 51
-0.016200 -0.136493 0.062172 84 61 50
-0.087682 -0.029733 0.095392 131 129 132
-0.014172 -0.234019 0.056461 58 64 53
-0.087268 -0.068647 0.090203 42 39 41
-0.229339 -0.308062 0.101385 87 66 54
-0.080428 0.115384 0.108861 83 70 66
-0.056975 -0.255248 0.060291 43 41 43
-0.229787 -0.274514 0.105022 84 64 53
-0.133368 -0.060737 0.104045 46 43 47
-0.078701 -0.036299 0.091856 59 53 50
-0.058833 -0.342403 0.056344 56 59 50
-0.211364 -0.353745 0.090549 52 51 43
-0.011881 -0.113238 0.063324 96 85 78
-0.025434 0.033783 0.084692 75 57 49
-0.277499 -0.313978 0.110786 54 57 48
-0.126903 -0.243035 0.079105 42 39 42
