ply
format ascii 1.0
element vertex 1260
property float x
property float y
property float z
property uchar red
property uchar green
property uchar blue
end_header
-0.097208 -0.286222 0.065704 56 58 50
-0.118557 -0.103832 0.095073 40 37 39
-0.161109 -0.072100 0.108827 85 68 59
-0.112992 0.176352 0.114051 36 32 32
-0.009386 -0.033799 0.071101 59 65 53
-0.035933 -0.392649 0.057333 145 137 137
-0.125849 -0.176658 0.087714 39 37 39
-0.039218 -0.002574 0.084096 39 36 37
0.011842 -0.016832 0.067438 89 71 60
-0.015539 0.048659 0.083601 84 66 59
-0.073027 -0.211756 0.067636 39 37 39
-0.048610 -0.434276 0.057886 80 85 76
-0.125871 -0.201931 0.084304 41 38 40
-0.080237 -0.071812 0.087593 89 86 89
-0.169526 -0.060013 0.111010 100 76 65
-0.002003 0.037721 0.077943 71 74 61
-0.066193 -0.123098 0.076379 41 38 40
-0.142392 -0.182474 0.092051 42 39 43
-0.159195 0.017065 0.113393 101 76 64
-0.063287 -0.132889 0.074270 40 37 39
-0.151038 0.034664 0.113355 100 76 64
-0.095737 0.222614 0.114015 45 43 40
-0.249994 -0.398351 0.096357 136 127 124
-0.160943 -0.173027 0.098661 35 33 35
-0.022440 -0.108005 0.066203 77 66 60
-0.064459 -0.126489 0.075426 41 38 40
-0.061773 -0.327857 0.056971 54 59 50
-0.023547 -0.017441 0.077261 71 76 65
-0.080299 -0.246446 0.065762 41 38 41
-0.104700 -0.171914 0.081731 40 37 39
-0.212389 -0.252122 0.103194 131 103 104
-0.223771 -0.213810 0.109100 56 60 50
-0.046520 -0.159587 0.066645 44 42 47
-0.127253 -0.079008 0.100523 41 38 40
-0.070072 -0.135648 0.075920 41 38 40
-0.254519 -0.422215 0.094670 70 73 72
-0.254376 -0.414393 0.095620 120 116 113
-0.084500 0.121260 0.109983 68 56 50
-0.155106 0.056560 0.113980 97 76 65
-0.128445 -0.168189 0.089659 40 37 39
-0.141087 0.098883 0.114050 174 171 170
-0.227639 -0.312433 0.100443 86 66 54
-0.106081 -0.102590 0.091485 40 37 39
-0.094166 -0.193284 0.075692 40 39 40
-0.138313 -0.200742 0.088362 40 39 42
-0.122377 0.141700 0.114048 65 51 47
-0.126924 -0.213172 0.083114 41 38 40
-0.035503 -0.102063 0.070193 50 45 44
-0.109969 -0.046281 0.099674 40 37 40
0.003689 -0.002362 0.071235 89 71 60
-0.105822 -0.183891 0.080473 39 37 39
-0.238633 -0.372768 0.096263 76 55 48
-0.217942 -0.396439 0.086868 53 54 46
-0.124040 -0.224116 0.080742 41 38 40
-0.080431 -0.191866 0.071897 40 39 40
-0.092954 0.179709 0.113630 34 31 29
-0.134107 0.165002 0.113466 80 74 71
-0.131915 -0.054736 0.104312 44 41 46
-0.124272 -0.035765 0.104439 41 38 40
-0.108773 0.021662 0.106500 37 34 35
-0.039353 -0.432061 0.058933 82 95 97
-0.053250 -0.234842 0.061167 44 42 48
-0.041993 0.021513 0.088221 40 37 39
-0.230157 -0.391992 0.091254 50 50 43
-0.158433 -0.287738 0.082909 38 35 37
-0.091569 0.202685 0.113968 34 31 29
-0.100104 0.092568 0.110485 72 58 58
-0.054175 -0.142810 0.070490 42 39 43
-0.075921 -0.206238 0.068991 39 37 39
-0.112433 0.058821 0.110142 117 117 117
-0.052843 -0.371022 0.055941 107 101 100
-0.156996 -0.149206 0.100380 37 36 37
-0.220605 -0.462064 0.078868 53 55 46
-0.222055 -0.269197 0.103751 84 65 54
-0.092967 0.057448 0.106422 44 42 44
-0.062030 -0.118517 0.075726 41 38 40
-0.088445 -0.225799 0.070077 40 39 40
-0.115635 -0.265630 0.072854 38 36 37
-0.207928 -0.276612 0.099295 73 56 50
-0.066147 -0.305739 0.058441 60 65 54
-0.155496 0.049495 0.113906 100 77 65
-0.169331 -0.251462 0.091190 41 38 40
-0.161079 0.029559 0.113792 99 76 64
-0.201685 -0.237541 0.102094 41 39 41
-0.067112 -0.245876 0.062915 42 39 44
-0.134199 -0.196483 0.087651 40 39 40
-0.128247 -0.098841 0.098467 41 38 40
-0.060227 -0.112901 0.075910 41 38 40
-0.107093 -0.098677 0.092308 40 37 40
-0.099831 0.048823 0.107076 44 44 46
-0.013206 0.053786 0.083563 81 66 59
-0.087202 -0.115639 0.083850 40 37 39
-0.197705 -0.292990 0.094351 58 60 50
-0.241714 -0.435951 0.088968 114 82 54
-0.037908 -0.334879 0.055936 87 66 54
-0.261660 -0.357085 0.104155 51 53 44
-0.039161 -0.054990 0.077085 37 34 36
-0.258838 -0.384276 0.100499 97 98 97
-0.059296 -0.140546 0.072178 42 41 46
-0.034700 -0.284347 0.056393 89 68 58
-0.087193 -0.274566 0.064562 37 36 37
-0.045875 -0.066660 0.077593 44 41 44
-0.141302 -0.218800 0.086862 41 38 43
-0.210629 -0.232089 0.104826 95 78 83
-0.061317 -0.339121 0.056575 56 58 50
-0.069052 -0.209765 0.066862 40 39 40
-0.092892 -0.022986 0.097729 39 36 37
-0.061959 -0.016253 0.089364 136 134 134
-0.111353 0.117792 0.113067 77 59 53
-0.063875 -0.050234 0.085382 144 140 141
-0.122701 -0.028375 0.104813 41 38 40
-0.261448 -0.414343 0.097659 67 86 93
-0.192399 -0.220749 0.101571 42 40 44
-0.002162 0.008206 0.074192 87 69 58
-0.115614 -0.210266 0.079983 40 37 40
-0.151396 -0.105888 0.103699 50 41 37
-0.139382 -0.285211 0.077362 50 55 44
-0.123015 0.196084 0.113311 35 33 31
-0.094576 0.020095 0.103097 51 44 44
-0.000650 -0.073031 0.064649 75 61 53
-0.128127 0.192149 0.113049 36 33 32
-0.223576 -0.421796 0.085205 52 53 45
-0.198246 -0.266726 0.097791 40 37 39
-0.102753 -0.023577 0.100366 138 136 134
-0.056457 -0.340755 0.056260 67 54 48
-0.022088 0.058829 0.087030 83 69 61
-0.080106 0.192154 0.113133 35 32 30
-0.075010 -0.251333 0.064085 40 38 40
-0.057397 -0.325876 0.056698 75 56 49
0.003311 -0.037575 0.067334 71 74 64
-0.049261 -0.253239 0.059227 43 41 44
-0.121173 0.110384 0.113534 119 101 90
-0.146899 -0.250352 0.084349 40 37 39
-0.129761 -0.063557 0.102876 40 37 39
-0.118541 -0.115490 0.093574 40 37 39
-0.179092 -0.225388 0.097417 41 39 41
-0.100008 0.149171 0.113238 35 32 30
-0.036373 -0.159599 0.064289 39 36 38
-0.124658 -0.034156 0.104689 41 38 40
-0.024190 0.055749 0.087272 78 62 54
-0.012070 -0.034576 0.071752 71 77 64
-0.112814 0.178100 0.114046 36 32 32
-0.216035 -0.329711 0.095088 80 61 51
-0.088820 -0.254766 0.066950 38 36 37
-0.065093 -0.141260 0.073746 40 37 40
-0.016762 -0.082415 0.067517 55 45 39
-0.121061 -0.247029 0.076803 40 37 42
-0.212171 -0.255753 0.102754 110 87 87
-0.129587 0.189403 0.113026 37 34 33
-0.070364 -0.278253 0.060881 39 37 39
-0.027798 -0.152079 0.063150 72 52 42
-0.108137 0.142196 0.113574 37 34 33
-0.130008 0.186197 0.113105 37 35 33
-0.105618 0.178669 0.114038 34 30 30
-0.152846 -0.231328 0.088779 40 39 41
-0.099821 0.205965 0.114055 34 31 29
-0.088641 -0.124918 0.083047 40 37 39
-0.006742 -0.072922 0.066068 65 53 47
-0.168509 -0.097787 0.108148 97 74 62
-0.009454 -0.088825 0.065099 74 60 53
-0.145121 -0.304009 0.076648 61 64 53
0.003483 0.023489 0.074469 87 70 62
-0.146484 -0.313728 0.075801 57 59 50
-0.112514 0.009063 0.106139 39 36 38
-0.116819 -0.147462 0.088825 40 37 39
-0.075972 -0.119335 0.079853 40 38 40
-0.077277 -0.012250 0.094548 37 35 36
-0.160669 -0.071571 0.108789 80 64 56
-0.132501 -0.206697 0.085740 41 38 40
-0.094264 0.230045 0.113979 50 54 45
-0.180890 -0.239604 0.096174 40 39 40
-0.108283 0.242099 0.112905 51 54 45
-0.032030 -0.188832 0.060923 51 53 53
-0.237547 -0.362401 0.097234 79 59 51
-0.118068 -0.150152 0.088853 39 37 39
-0.141372 -0.193880 0.090230 42 40 44
-0.050426 -0.228756 0.061131 47 43 50
-0.074839 -0.059651 0.087545 147 141 144
-0.077167 -0.039690 0.090938 39 36 38
-0.090286 0.104194 0.109727 62 49 44
-0.146568 -0.209242 0.089787 41 39 41
-0.145379 0.063305 0.113741 112 87 83
-0.118724 0.075339 0.111983 43 40 42
-0.221663 -0.416408 0.085334 52 53 45
-0.063149 -0.137774 0.073618 40 38 40
-0.047949 0.106157 0.100672 174 171 170
-0.095992 0.252414 0.113492 51 54 45
-0.054372 -0.296367 0.057548 79 60 52
-0.053332 -0.304079 0.057128 79 61 53
-0.129778 0.021406 0.110330 40 36 39
-0.115814 0.112982 0.113252 106 86 78
-0.137026 -0.212164 0.086419 41 39 41
-0.151060 -0.043161 0.109256 50 43 40
-0.132468 0.210903 0.111779 51 53 47
-0.050224 -0.016720 0.085635 40 37 39
-0.036780 -0.335238 0.055947 87 66 54
-0.124321 0.026042 0.109780 39 36 37
-0.063860 -0.081443 0.081165 41 38 40
-0.109824 -0.185701 0.081474 40 37 39
-0.050253 -0.006282 0.087055 40 37 39
-0.233035 -0.325234 0.100410 89 68 55
-0.041583 -0.337874 0.055929 83 64 53
-0.146581 0.025303 0.112652 120 90 82
-0.023983 -0.044057 0.073983 69 74 64
-0.119833 -0.123967 0.092863 41 38 40
-0.145332 -0.208457 0.089509 41 39 41
-0.214589 -0.367760 0.089678 50 51 43
-0.073187 0.056338 0.101650 39 36 37
-0.111995 0.043949 0.108995 39 36 37
-0.048071 -0.378032 0.056114 117 112 109
-0.222101 -0.420215 0.084956 52 53 45
-0.146558 -0.177844 0.093910 42 40 42
-0.080236 0.234558 0.114019 50 54 45
-0.254561 -0.414110 0.095709 120 116 113
-0.136518 -0.081928 0.102586 42 39 41
-0.143809 -0.074566 0.105083 39 36 38
-0.158151 -0.090684 0.106693 61 50 43
-0.088640 -0.223544 0.070392 40 39 40
-0.125745 -0.076124 0.100453 42 39 41
-0.094247 -0.194182 0.075601 40 39 40
-0.151157 -0.290892 0.080220 49 51 48
-0.003527 -0.093898 0.063321 63 69 57
-0.221911 -0.380762 0.090208 54 56 47
-0.038872 -0.205930 0.060829 45 44 50
-0.148078 0.075288 0.114003 69 75 62
-0.163509 -0.322650 0.079803 57 58 48
-0.072923 0.061820 0.102186 39 36 38
-0.107052 0.122015 0.112855 52 44 41
-0.030262 0.042747 0.087417 113 83 81
-0.010970 -0.097344 0.064611 75 71 60
-0.017564 -0.095976 0.066278 79 65 59
-0.093118 0.111482 0.110660 64 50 45
-0.197786 -0.193969 0.105637 58 59 54
-0.088520 0.068301 0.106472 46 43 45
-0.019276 -0.097391 0.066544 77 62 57
-0.038960 -0.442719 0.059664 119 93 67
-0.033751 -0.416250 0.058766 87 110 118
-0.025984 -0.017316 0.078017 63 69 57
-0.141326 0.018718 0.111765 54 43 44
-0.089865 -0.065531 0.091414 39 36 40
-0.158251 -0.171814 0.098057 37 36 36
-0.057590 0.051899 0.096876 92 89 87
-0.101637 -0.023810 0.100040 137 134 136
-0.225099 -0.359685 0.093942 54 50 42
-0.087530 -0.115951 0.083911 40 37 39
-0.039080 -0.217006 0.060062 50 49 55
-0.063321 -0.417354 0.056180 48 49 41
-0.046202 -0.379941 0.056222 122 115 113
0.009130 -0.092892 0.060962 59 65 53
-0.071554 0.000927 0.094537 40 37 39
-0.002444 -0.040209 0.068506 61 66 55
-0.066297 0.071469 0.101556 42 40 40
-0.152620 0.042422 0.113654 99 76 64
-0.088600 -0.036375 0.094820 58 56 59
-0.026449 -0.081851 0.070102 47 39 37
-0.219359 -0.257691 0.104289 85 64 53
-0.206498 -0.217212 0.105344 130 102 100
-0.043273 -0.206092 0.061610 47 46 51
-0.047477 -0.448633 0.058799 87 62 43
-0.037532 -0.058993 0.076077 38 35 37
-0.010517 0.009302 0.076809 90 72 61
-0.122406 -0.292437 0.071505 54 56 46
-0.061221 -0.210295 0.064956 42 40 42
-0.128200 0.148645 0.114005 80 66 65
-0.064761 -0.324754 0.057362 57 62 52
-0.082938 0.081752 0.106518 41 38 40
-0.118412 -0.250959 0.075505 40 37 40
-0.168108 -0.093840 0.108392 97 74 62
-0.244433 -0.452061 0.087649 89 77 61
-0.086053 0.196931 0.113658 35 32 29
-0.101257 -0.008442 0.101683 130 127 128
-0.124407 -0.128409 0.093663 40 37 40
-0.133832 0.036146 0.111768 39 36 38
-0.122430 0.130041 0.113956 85 62 56
-0.165361 -0.118685 0.105647 66 53 47
-0.092750 -0.234371 0.070241 41 38 40
-0.103021 -0.032716 0.099375 141 138 138
-0.052028 -0.455721 0.058600 49 50 42
-0.108567 0.183648 0.114060 35 31 30
-0.024975 -0.142192 0.063451 76 53 44
-0.142395 0.076775 0.113859 97 87 79
-0.201914 -0.256198 0.100051 41 38 41
-0.169909 -0.190663 0.099036 42 39 44
-0.017828 0.055973 0.085308 83 66 60
-0.078564 -0.091814 0.084364 39 36 38
-0.132904 0.161255 0.113631 95 84 80
-0.179484 -0.234547 0.096398 41 39 41
-0.101418 -0.126532 0.086835 41 38 40
-0.089931 -0.180880 0.076024 40 39 40
-0.183638 -0.156494 0.106077 55 58 49
-0.040185 -0.319165 0.056013 89 68 57
-0.113227 -0.097474 0.094308 40 37 39
-0.020547 -0.059644 0.071104 54 59 50
-0.112710 -0.231457 0.076312 41 38 40
-0.063074 0.109516 0.104778 174 171 170
-0.145668 -0.109462 0.101897 45 41 47
-0.117063 -0.241583 0.076308 40 38 42
-0.221302 -0.230185 0.107304 89 69 61
-0.052156 -0.327886 0.056322 76 58 50
-0.224853 -0.336327 0.096821 83 63 53
-0.081119 0.148469 0.111219 37 33 33
-0.094218 0.156001 0.113013 35 32 29
-0.017695 -0.042735 0.072344 68 72 60
-0.094425 0.177156 0.113650 34 31 29
-0.047749 0.054848 0.094375 39 36 37
-0.071490 0.153014 0.110092 51 42 40
-0.095882 0.042513 0.105659 39 36 38
-0.057595 -0.188514 0.066306 40 39 40
-0.104197 -0.182174 0.080199 39 37 39
-0.108684 -0.087579 0.094226 40 37 40
-0.043544 -0.282613 0.057081 80 61 52
-0.053056 0.040027 0.094051 38 35 37
-0.160812 -0.193960 0.096061 41 39 43
-0.043236 -0.101761 0.072367 39 36 37
-0.230016 -0.383269 0.092359 53 53 46
-0.137036 -0.150768 0.094552 42 40 42
-0.146740 -0.053105 0.107666 42 37 41
-0.113144 0.015068 0.106820 40 37 39
-0.060190 -0.192695 0.066496 40 39 40
-0.123030 -0.157449 0.089416 42 39 41
-0.139408 -0.070858 0.104438 43 40 46
-0.034822 -0.291395 0.056244 91 70 58
-0.147943 -0.094104 0.104088 41 39 40
-0.245545 -0.474665 0.084942 47 48 40
-0.119888 -0.004857 0.106432 40 37 39
-0.063219 -0.220578 0.064409 42 39 45
-0.159821 0.007026 0.113123 100 76 64
-0.032377 -0.152241 0.064109 70 52 46
-0.077438 -0.228897 0.066895 41 39 40
-0.019469 -0.122246 0.064115 84 74 67
-0.088541 0.211018 0.113982 36 32 30
-0.093179 0.077992 0.108240 40 37 39
-0.090931 0.155986 0.112720 35 32 29
-0.087579 0.063662 0.105839 83 80 82
-0.125555 0.152589 0.114022 51 44 45
-0.155305 0.056923 0.113989 97 76 65
-0.102813 -0.152457 0.083765 39 37 39
-0.006475 -0.082061 0.065085 74 60 53
-0.129734 -0.273562 0.075972 60 65 55
-0.046295 -0.337106 0.055979 82 60 50
-0.053222 -0.070771 0.079297 41 38 42
-0.061532 -0.276329 0.059571 39 37 39
-0.075496 -0.029752 0.091740 41 38 40
-0.216287 -0.276708 0.101507 86 66 54
-0.127259 0.070113 0.112652 42 39 41
-0.071725 -0.315300 0.058630 56 58 50
-0.040588 -0.178202 0.063468 46 43 48
-0.211951 -0.272711 0.100826 82 62 51
-0.172153 -0.340663 0.080073 50 51 43
-0.132098 0.205394 0.112102 50 51 46
-0.079732 0.174107 0.112383 35 33 32
-0.153587 -0.127634 0.101918 61 65 55
0.011820 -0.061880 0.063003 89 69 62
-0.231702 -0.460084 0.082575 51 50 43
-0.159437 -0.188418 0.096355 39 37 39
-0.229267 -0.328425 0.099018 87 65 54
0.000490 0.011300 0.073810 83 65 54
-0.087762 0.128585 0.110951 46 41 38
-0.122839 -0.188910 0.085115 38 37 39
-0.204873 -0.307135 0.094667 53 55 46
-0.064525 -0.005438 0.091592 136 134 134
-0.044510 -0.024826 0.082747 41 38 40
0.021943 -0.063911 0.060907 94 74 61
-0.179362 -0.264465 0.092538 39 37 39
-0.167937 -0.079682 0.109449 96 74 62
-0.056087 -0.205585 0.064263 42 40 44
-0.048625 -0.049574 0.080702 40 37 40
-0.162401 -0.173589 0.098997 36 34 36
-0.061938 -0.261611 0.060665 39 37 39
-0.095887 -0.275945 0.066445 57 59 49
-0.033844 -0.303022 0.056028 93 70 59
-0.061659 -0.344750 0.056445 59 59 51
-0.167947 -0.274185 0.087724 37 36 37
-0.092551 -0.136787 0.082668 41 38 40
-0.130900 -0.182410 0.088516 39 37 39
-0.056056 -0.167114 0.068216 39 38 39
-0.239005 -0.431503 0.088722 90 73 54
-0.104146 0.172763 0.113960 35 31 30
-0.128459 -0.128606 0.094842 41 38 40
-0.092315 -0.061713 0.092661 147 143 145
-0.139479 -0.037082 0.107597 44 43 48
-0.085895 -0.254125 0.066306 39 36 38
-0.019540 -0.128110 0.063586 58 52 46
-0.039524 -0.206851 0.060874 45 44 50
-0.090104 0.144290 0.112112 36 33 32
-0.135479 -0.230622 0.083436 41 38 40
-0.236374 -0.404991 0.091441 47 47 40
-0.189388 -0.185813 0.104530 57 62 52
-0.104239 0.138059 0.113195 38 34 34
-0.121302 -0.060181 0.101094 42 39 42
-0.127110 -0.025162 0.106103 42 39 42
-0.004599 -0.031341 0.070085 66 72 59
-0.141195 0.028002 0.112215 91 68 68
-0.050289 -0.374141 0.056002 114 109 106
-0.016314 0.042825 0.083055 75 59 51
-0.121260 -0.247549 0.076796 40 37 42
-0.025742 -0.058202 0.072734 54 59 50
-0.230620 -0.397824 0.090624 47 48 40
-0.201870 -0.358696 0.086933 51 52 44
-0.111048 -0.256871 0.072624 39 36 39
-0.172441 -0.295641 0.086233 57 58 51
-0.164077 -0.328793 0.079162 55 56 48
-0.036430 -0.424433 0.058883 97 79 66
-0.054740 -0.199340 0.064561 43 40 45
-0.068866 -0.125720 0.076842 41 38 40
-0.096130 0.088750 0.109591 40 37 39
-0.104802 -0.056849 0.096963 141 137 139
-0.153757 -0.000300 0.112254 91 70 57
-0.035635 0.064033 0.091920 121 89 86
-0.120999 0.201084 0.113301 34 32 30
-0.156704 -0.109202 0.104614 61 50 44
-0.076979 -0.117766 0.080374 40 38 40
-0.231917 -0.349892 0.097168 83 62 51
-0.082136 -0.049675 0.091142 138 135 135
-0.200377 -0.224314 0.103190 42 41 45
-0.156654 -0.015626 0.111828 90 70 59
-0.215183 -0.367280 0.089926 50 51 43
-0.061687 -0.109015 0.076850 41 38 40
-0.088350 0.064397 0.106075 83 80 82
-0.077652 -0.132091 0.078677 41 39 42
-0.037420 -0.319799 0.055956 93 72 59
-0.113700 -0.020443 0.103496 41 38 40
-0.236291 -0.355980 0.097663 79 59 49
-0.036333 -0.261073 0.057270 89 66 57
-0.032023 -0.180029 0.061609 47 45 51
-0.012174 -0.108600 0.063810 95 84 77
-0.029853 -0.031977 0.077271 66 71 63
-0.162249 -0.241499 0.090333 41 38 40
-0.033426 -0.137863 0.065754 62 47 42
-0.074405 -0.031351 0.091195 39 37 38
-0.066188 0.050498 0.099118 48 45 46
-0.107025 -0.061500 0.097025 144 141 143
-0.238690 -0.351780 0.098839 80 61 50
-0.236326 -0.332084 0.100499 89 67 55
-0.107121 0.109631 0.112338 71 55 50
-0.035183 -0.384705 0.057087 146 137 138
-0.043060 0.037354 0.090670 39 36 37
-0.050794 0.002671 0.088431 40 37 39
-0.069947 -0.059989 0.085967 137 134 135
-0.070001 -0.164976 0.072225 40 38 40
-0.108727 0.161208 0.113949 36 33 32
-0.224912 -0.489879 0.076533 52 54 46
-0.207722 -0.357399 0.088934 50 51 44
-0.145069 -0.077679 0.105064 38 35 36
-0.134406 0.177805 0.113042 42 39 36
-0.037904 -0.048928 0.077495 37 34 36
-0.133078 0.073136 0.113258 43 41 42
-0.049073 -0.436009 0.057918 87 79 62
-0.182425 -0.259689 0.094078 40 37 39
-0.220337 -0.385112 0.089139 60 61 53
-0.099652 -0.141878 0.084205 39 37 39
-0.039261 0.094426 0.096880 174 171 170
-0.131428 -0.128583 0.095717 42 39 41
-0.034770 -0.291172 0.056246 91 70 58
-0.044841 -0.438322 0.058558 90 77 58
-0.130472 -0.265378 0.077255 38 35 37
0.029028 -0.004507 0.064621 60 65 53
-0.145502 0.018250 0.112226 129 98 91
-0.020467 -0.030009 0.074725 55 60 49
-0.049050 -0.041848 0.081871 40 37 40
-0.164007 -0.170966 0.099743 42 40 42
-0.167850 -0.125491 0.105548 56 60 50
-0.053261 0.000284 0.088878 39 36 39
-0.261338 -0.412059 0.097905 65 83 88
-0.149435 -0.230399 0.087841 42 39 41
-0.061601 -0.290077 0.058731 57 58 48
-0.122776 0.201997 0.113138 35 32 30
-0.132910 0.091102 0.113719 174 171 170
-0.108278 0.077692 0.110746 42 39 40
-0.093065 -0.195287 0.075110 40 39 40
-0.023530 0.074644 0.089605 127 119 113
-0.033122 -0.108103 0.068868 61 55 49
-0.118334 -0.238877 0.077041 41 38 41
-0.236240 -0.331870 0.100501 89 67 55
-0.036712 0.028073 0.087455 39 36 37
-0.142659 -0.278479 0.079249 42 40 40
-0.233328 -0.306740 0.102546 89 67 56
-0.000959 -0.097597 0.062473 62 68 57
-0.008279 -0.060451 0.067766 61 50 45
-0.158388 -0.093799 0.106461 60 49 42
-0.217055 -0.271238 0.102305 84 62 54
-0.112808 0.143006 0.113820 37 36 35
-0.074747 0.118456 0.108054 174 171 170
-0.073264 -0.214461 0.067403 39 37 39
-0.049138 0.053170 0.094572 39 36 37
-0.064391 0.028305 0.095901 49 45 44
-0.053400 -0.158445 0.068495 38 36 38
-0.042079 -0.234894 0.059334 47 44 50
-0.084303 0.000116 0.098116 132 130 129
0.015027 -0.053311 0.063104 89 69 61
-0.024865 -0.050044 0.073491 58 63 53
-0.078272 -0.250800 0.064861 40 37 39
-0.051850 -0.195482 0.064289 43 41 46
-0.142101 -0.169348 0.093673 42 39 44
-0.235071 -0.484516 0.080342 52 54 46
-0.216272 -0.253760 0.103960 53 43 44
-0.243367 -0.469590 0.084946 47 44 37
-0.072812 0.022498 0.097599 130 127 130
-0.051626 -0.163530 0.067486 38 36 37
-0.060473 -0.201413 0.065668 41 39 41
-0.159525 -0.300330 0.081554 55 58 48
-0.131186 -0.207403 0.085231 41 38 40
-0.222057 -0.253314 0.105342 89 67 56
-0.237647 -0.371215 0.096171 80 60 53
-0.029291 0.027537 0.085057 123 87 85
-0.098750 0.224592 0.113921 47 46 42
-0.218989 -0.269393 0.102986 84 63 55
-0.072754 -0.278749 0.061269 40 38 39
-0.111129 -0.032002 0.101608 40 37 39
-0.081402 -0.255495 0.065113 39 36 38
-0.239932 -0.469327 0.083904 46 45 39
-0.017090 0.059308 0.085528 78 65 58
-0.148500 -0.000786 0.111611 68 50 42
-0.240023 -0.381270 0.095600 125 120 117
-0.237458 -0.351974 0.098475 80 60 49
-0.033688 -0.375824 0.056891 104 96 95
-0.127244 0.160344 0.113896 43 40 39
-0.237110 -0.393688 0.093145 127 121 119
-0.039196 -0.021366 0.081554 39 36 38
-0.101651 0.150548 0.113395 35 32 31
-0.262940 -0.436742 0.095305 107 98 88
-0.211573 -0.186545 0.109023 56 59 50
-0.133765 -0.038478 0.106299 44 41 43
-0.241648 -0.416142 0.091583 98 94 92
-0.100863 0.131988 0.112681 41 36 33
-0.113980 0.206445 0.113600 35 32 30
-0.109817 -0.010910 0.103552 39 36 38
-0.122502 -0.072400 0.100015 41 38 40
-0.179325 -0.204489 0.099975 43 40 45
-0.078467 0.222294 0.113814 51 54 45
-0.186664 -0.226842 0.099351 41 39 43
-0.084159 -0.178905 0.074569 40 39 40
-0.078939 -0.237814 0.066325 41 38 40
-0.090132 -0.218214 0.071433 40 38 40
-0.128201 -0.276864 0.075095 58 62 53
-0.067341 -0.166850 0.071257 40 39 40
-0.155639 -0.318833 0.077895 58 61 50
-0.167864 -0.207836 0.096370 42 39 42
-0.072232 0.106787 0.106537 174 171 170
-0.163253 -0.035447 0.111587 100 76 65
-0.156249 0.039095 0.113761 99 76 64
-0.115742 -0.094240 0.095462 41 38 40
-0.036204 -0.173790 0.062953 44 43 47
-0.094318 0.054788 0.106465 39 36 38
-0.193644 -0.265509 0.096630 40 37 39
0.010438 -0.049036 0.064484 76 58 51
-0.143928 -0.097920 0.102714 41 37 42
-0.125320 -0.186399 0.086233 40 37 39
-0.037067 -0.240635 0.058316 51 51 50
-0.061820 -0.349770 0.056334 59 59 51
-0.043326 0.046740 0.091991 38 35 37
-0.055941 -0.426838 0.056871 90 73 55
0.006114 -0.050053 0.065365 66 53 46
-0.063563 -0.334498 0.056884 58 63 52
-0.049165 -0.322786 0.056282 80 62 51
-0.109609 -0.200706 0.079402 39 37 39
-0.087481 0.113627 0.109933 68 52 47
-0.085703 -0.191567 0.073431 40 39 40
-0.026343 -0.097130 0.068338 53 45 40
-0.081932 0.197297 0.113425 35 32 30
-0.074144 -0.153425 0.074855 40 39 40
-0.135361 -0.233052 0.083071 41 38 40
-0.158264 0.033471 0.113742 99 76 64
-0.040537 -0.135776 0.067707 44 41 46
-0.033785 -0.394743 0.057642 152 145 145
-0.068934 -0.206412 0.067189 40 39 40
-0.078644 -0.209183 0.069374 39 37 39
-0.054908 -0.229573 0.061894 45 43 49
-0.223696 -0.386606 0.089981 55 57 47
-0.237538 -0.389664 0.093795 126 120 117
-0.101594 0.096094 0.110926 102 79 76
-0.091414 0.198726 0.113915 34 31 29
-0.155238 -0.026349 0.111042 86 68 57
-0.030148 -0.153620 0.063503 74 54 45
-0.231938 -0.330025 0.099560 89 67 55
-0.231154 -0.360865 0.095581 75 56 47
-0.037310 -0.081154 0.073211 39 36 38
-0.220639 -0.348897 0.093999 72 54 47
-0.233456 -0.262435 0.106947 95 75 65
-0.115842 -0.121113 0.092026 40 37 40
-0.229028 -0.364107 0.094543 68 52 46
-0.061678 -0.330049 0.056886 54 60 50
-0.052000 -0.462537 0.059003 51 53 44
-0.111577 0.029298 0.107740 39 36 38
-0.131423 0.149801 0.113908 174 171 170
-0.123941 0.151001 0.114051 45 41 40
-0.059308 -0.175700 0.068101 39 37 40
-0.232976 -0.474586 0.081022 50 52 44
-0.018537 -0.076163 0.068658 53 42 37
-0.163568 -0.205559 0.095406 42 40 42
-0.054999 -0.302937 0.057328 78 59 52
-0.157935 -0.154669 0.100001 38 37 37
-0.129923 0.018089 0.110129 41 37 39
-0.050301 -0.001446 0.087722 40 37 39
-0.233077 -0.463067 0.082602 51 51 43
-0.020319 -0.039427 0.073500 62 68 57
-0.097288 -0.103717 0.088619 40 37 39
-0.131223 0.059157 0.112578 40 37 39
-0.117335 0.007214 0.106985 39 36 38
-0.108559 -0.141850 0.087002 40 39 40
-0.140006 -0.272409 0.079239 37 36 35
-0.166620 -0.273357 0.087421 37 36 37
-0.020728 0.016455 0.080883 80 61 51
0.020901 -0.000188 0.066971 86 72 62
-0.217912 -0.277072 0.101884 88 66 57
-0.118707 -0.220024 0.079638 41 38 40
-0.055433 -0.066831 0.080505 41 37 37
-0.141398 0.051363 0.113177 107 82 80
-0.258528 -0.371121 0.101896 83 85 84
0.025696 -0.027175 0.063229 86 68 57
-0.036757 -0.375549 0.056652 139 131 129
-0.044768 -0.306646 0.056419 85 64 54
-0.033567 -0.388572 0.057392 138 133 134
-0.043125 -0.334989 0.055946 83 63 53
-0.024639 -0.116648 0.065839 79 68 61
-0.081373 0.216397 0.113829 50 47 43
0.024736 -0.051955 0.061330 95 74 64
-0.089738 -0.030327 0.095918 64 63 65
-0.183807 -0.237654 0.097253 41 39 41
-0.000756 0.014531 0.074579 83 66 56
-0.126904 -0.138715 0.093077 41 37 40
-0.084243 -0.285665 0.062908 36 34 35
-0.224851 -0.282610 0.103025 80 60 53
-0.230376 -0.450139 0.083503 51 52 44
-0.053151 -0.185004 0.065611 42 40 44
-0.061926 -0.452073 0.057298 52 54 46
-0.139623 -0.147381 0.095742 39 37 39
-0.220775 -0.365354 0.091899 51 50 41
-0.113998 0.046669 0.109543 39 36 37
-0.069145 -0.211510 0.066701 40 39 40
-0.079213 -0.084335 0.085580 41 38 40
-0.038849 0.004687 0.084963 40 37 39
-0.073174 0.058569 0.101893 39 36 38
-0.078340 -0.219957 0.068086 40 39 40
-0.162617 -0.189703 0.097109 41 39 44
-0.159346 -0.247069 0.088689 40 38 40
-0.115257 -0.138219 0.089578 39 37 39
-0.213229 -0.236039 0.105031 44 37 40
-0.118298 0.211843 0.113156 35 33 30
-0.158360 0.003130 0.112858 97 74 61
-0.110186 0.110293 0.112677 79 59 55
-0.200707 -0.249934 0.100450 41 38 41
0.022154 -0.013905 0.065262 87 69 61
-0.144123 -0.128146 0.099359 40 37 39
-0.001880 -0.070835 0.065142 73 59 51
-0.061748 -0.271184 0.059950 39 37 38
-0.031950 -0.112781 0.068045 62 57 51
-0.100358 -0.152726 0.082960 39 37 39
-0.146507 -0.244571 0.085008 40 37 40
-0.044834 -0.415300 0.057418 89 78 60
-0.227484 -0.482977 0.078213 53 55 46
-0.095867 -0.019412 0.098988 137 134 134
-0.122853 0.079067 0.112599 45 42 44
-0.029266 -0.134584 0.065116 71 49 39
-0.047448 0.051704 0.093881 39 36 37
-0.143787 -0.027250 0.109185 40 37 41
-0.057484 -0.322748 0.056805 75 57 50
-0.067216 -0.039753 0.087845 94 95 95
-0.138629 -0.127989 0.097855 43 40 43
-0.085766 -0.098530 0.085715 40 37 40
-0.137974 -0.242799 0.082573 41 38 40
-0.095791 0.034152 0.104826 39 36 38
-0.036094 -0.028869 0.079588 37 34 36
-0.077210 0.208163 0.113423 39 36 35
-0.095920 -0.048426 0.095444 147 142 142
-0.003775 -0.007809 0.072668 95 77 66
-0.012729 -0.044111 0.070797 65 68 58
-0.123910 0.054692 0.111528 39 36 38
-0.004059 0.025409 0.076957 87 69 60
-0.097282 0.136239 0.112509 39 35 35
-0.221974 -0.404754 0.087007 53 54 46
-0.052832 -0.198451 0.064223 43 41 46
-0.161148 -0.189593 0.096702 40 38 43
-0.115438 0.153840 0.114026 38 34 34
-0.032928 -0.117987 0.067724 65 57 51
-0.055137 0.066363 0.097950 40 37 39
-0.148374 0.032070 0.113071 99 75 63
-0.075933 0.128226 0.109047 151 144 138
-0.157983 -0.140221 0.101653 60 65 54
-0.066401 -0.224980 0.064696 41 39 41
-0.111566 -0.104910 0.092849 40 37 39
-0.046270 -0.334594 0.056000 82 61 51
-0.036404 -0.005252 0.082853 39 36 37
-0.105527 0.119636 0.112616 53 45 42
-0.089818 -0.202985 0.073198 39 37 39
-0.085594 -0.191980 0.073349 40 39 40
-0.193823 -0.300469 0.092214 53 55 47
-0.056102 -0.068193 0.080530 41 36 37
-0.106986 0.078381 0.110599 42 39 40
-0.105549 0.072014 0.109952 39 36 36
-0.181032 -0.180717 0.103057 60 62 54
-0.014887 -0.039152 0.071988 66 72 59
-0.136875 -0.163427 0.092869 39 36 38
0.021527 -0.087267 0.059345 62 65 55
-0.121165 -0.089163 0.097652 42 39 42
-0.090098 -0.256312 0.067100 38 36 37
-0.174020 -0.275486 0.089440 38 36 37
-0.209364 -0.251470 0.102515 40 37 40
-0.152250 -0.285774 0.081244 37 35 37
-0.208536 -0.275240 0.099621 78 59 51
-0.040209 0.037036 0.089747 40 37 39
-0.096932 0.171103 0.113644 35 32 29
-0.068635 -0.203695 0.067407 40 39 40
-0.237727 -0.417057 0.090257 80 96 100
-0.061292 -0.447167 0.057161 50 51 44
-0.033563 -0.040683 0.077258 37 36 37
-0.045047 -0.220133 0.060838 48 45 51
-0.058952 -0.368988 0.055961 52 52 43
-0.176549 -0.190868 0.100799 43 41 44
-0.155651 -0.310717 0.078969 58 63 53
-0.085978 -0.105809 0.084796 40 37 39
-0.180839 -0.227654 0.097635 41 39 41
-0.057632 -0.361489 0.055995 53 52 44
-0.097461 -0.027868 0.098419 137 132 134
0.004713 -0.045565 0.066150 63 49 43
-0.016340 -0.112087 0.064391 85 74 67
-0.036619 -0.228233 0.058963 46 44 48
-0.192201 -0.273290 0.095235 39 36 39
0.010315 -0.055452 0.063904 84 65 57
-0.158872 -0.310594 0.079977 54 57 49
-0.203396 -0.232289 0.103087 43 40 42
-0.220753 -0.254913 0.104890 86 65 53
-0.171016 -0.195333 0.098786 42 40 45
-0.094643 -0.274568 0.066289 57 59 51
-0.244750 -0.484087 0.083418 51 54 45
-0.049836 -0.021180 0.084910 40 37 39
-0.207789 -0.357393 0.088955 50 51 44
-0.057154 -0.262403 0.059822 40 38 40
-0.253206 -0.348576 0.103001 65 59 51
-0.230192 -0.283804 0.104188 81 61 51
-0.112376 0.117721 0.113146 85 66 59
-0.146760 -0.018004 0.110327 62 48 40
-0.088618 -0.201161 0.073080 39 37 39
-0.098933 0.127305 0.112278 47 40 37
0.011293 -0.075118 0.061975 88 69 61
-0.135802 -0.153386 0.093849 42 40 42
-0.238850 -0.299097 0.104669 94 72 61
-0.200631 -0.206926 0.105022 138 110 112
-0.112797 0.088603 0.111959 47 43 46
-0.250141 -0.365379 0.100354 83 63 55
-0.119789 0.001118 0.106949 39 36 38
-0.061437 -0.094446 0.078684 41 38 40
-0.088643 0.054952 0.105241 37 36 39
-0.064587 -0.167902 0.070378 41 40 41
-0.192186 -0.239631 0.099352 42 39 41
-0.150673 -0.214828 0.090311 41 39 41
-0.091739 -0.145150 0.081289 40 39 40
-0.140837 -0.155297 0.095097 39 36 37
-0.064638 -0.134272 0.074490 40 37 39
-0.114263 0.043982 0.109392 39 36 37
-0.035101 -0.391570 0.057368 145 137 137
-0.128197 -0.219296 0.082686 41 38 40
-0.087164 0.077000 0.106971 40 37 39
-0.122836 -0.276138 0.073620 56 61 50
-0.113914 0.072067 0.111197 41 38 40
-0.067518 -0.309057 0.058434 55 60 49
-0.229149 -0.456843 0.082214 50 51 43
-0.039084 -0.203841 0.061025 47 45 51
-0.119664 0.191136 0.113650 34 30 30
-0.200689 -0.321641 0.091523 50 51 43
-0.043356 -0.295378 0.056636 84 64 54
-0.036153 -0.021997 0.080523 38 35 37
-0.056053 -0.205526 0.064261 42 40 44
-0.024745 0.037616 0.084994 72 55 47
-0.048478 -0.208252 0.062431 45 44 50
-0.086434 -0.225372 0.069588 39 37 39
-0.055730 -0.126506 0.072884 43 42 48
-0.121582 0.065617 0.111824 40 37 39
-0.107058 0.179892 0.114057 35 31 30
-0.040749 -0.296672 0.056435 86 65 54
-0.124054 -0.013290 0.106544 40 37 40
-0.023594 0.010259 0.080944 80 62 54
-0.097831 0.217104 0.114020 38 35 33
-0.139684 -0.055548 0.105988 46 43 48
-0.103121 0.157735 0.113666 35 32 31
-0.165560 -0.110553 0.106449 90 69 57
-0.074760 -0.201279 0.069248 39 37 39
-0.114151 -0.181506 0.083392 39 37 39
-0.132456 -0.026973 0.107062 43 40 43
-0.191868 -0.260531 0.096737 39 37 38
-0.050482 -0.159819 0.067600 38 36 38
-0.102472 0.029935 0.105914 54 51 50
-0.121478 0.072064 0.112136 41 40 41
-0.117001 -0.138622 0.090064 41 38 40
-0.230711 -0.285875 0.104100 84 63 54
-0.104606 0.006963 0.104149 113 111 115
-0.133018 0.023532 0.110943 41 39 40
-0.063043 -0.021206 0.089037 139 136 136
-0.244586 -0.458316 0.086853 107 81 53
-0.243068 -0.411654 0.092604 123 115 112
-0.152190 -0.171538 0.096365 40 38 40
-0.179328 -0.277002 0.090877 38 35 37
-0.105729 -0.031494 0.100249 37 35 36
0.004858 -0.081068 0.062736 85 67 59
-0.125286 -0.041442 0.104102 41 38 40
-0.169466 -0.058756 0.111077 100 76 65
-0.062013 -0.294095 0.058556 59 58 49
-0.063347 -0.445463 0.056921 52 55 47
-0.227771 -0.486059 0.077895 52 54 46
-0.068637 0.108321 0.105909 174 171 170
0.015961 -0.022083 0.065884 88 70 59
-0.104352 -0.040121 0.098864 79 81 82
-0.118138 -0.138678 0.090407 41 38 40
-0.240363 -0.444836 0.087351 80 88 92
-0.158062 -0.112677 0.104582 68 54 47
-0.220269 -0.311327 0.098570 85 64 54
-0.119321 -0.058277 0.100790 40 39 40
-0.050712 -0.034795 0.083343 40 37 39
-0.004947 -0.036612 0.069570 68 74 61
-0.170976 -0.171877 0.101483 58 61 54
-0.220177 -0.250852 0.105157 101 76 70
-0.239238 -0.433356 0.088546 86 73 63
-0.077426 0.104441 0.107396 76 65 61
-0.185160 -0.217005 0.100092 43 40 45
0.020550 -0.019723 0.065054 84 66 55
-0.254300 -0.449636 0.091033 97 72 48
-0.252443 -0.360318 0.101531 89 77 69
-0.108505 -0.247812 0.073013 41 38 41
-0.152162 0.024003 0.113096 96 74 61
-0.122529 0.196802 0.113323 36 33 31
-0.036449 0.043939 0.089505 39 36 37
-0.234556 -0.496085 0.078646 52 54 46
-0.042995 -0.105450 0.071852 39 36 37
-0.129624 -0.042426 0.105010 44 41 47
-0.132559 -0.195582 0.087260 40 39 40
-0.220571 -0.339253 0.095211 78 61 54
-0.092937 -0.131434 0.083512 40 37 39
-0.117088 0.216155 0.113105 38 38 35
-0.131210 0.141588 0.114006 174 171 170
-0.036394 -0.333983 0.055946 87 67 54
-0.233164 -0.437576 0.086077 50 52 44
-0.185267 -0.285958 0.091514 46 47 43
-0.085975 -0.239795 0.067852 41 39 40
0.016182 0.009624 0.069256 82 69 61
-0.016032 0.017531 0.079573 83 65 54
-0.182090 -0.215734 0.099410 42 40 44
-0.018220 0.017625 0.080262 82 63 53
-0.162227 -0.190571 0.096891 42 39 44
-0.050705 -0.334479 0.056132 78 59 50
-0.146729 -0.286261 0.079469 51 53 48
-0.247292 -0.386783 0.097014 131 125 122
-0.102417 0.080147 0.110012 40 37 39
-0.128130 -0.091077 0.099358 40 37 39
-0.093262 -0.000461 0.100493 67 61 63
-0.030617 -0.119371 0.066998 68 59 54
0.010616 -0.039539 0.065373 79 63 54
-0.124076 0.179402 0.113683 37 33 33
-0.145337 -0.017007 0.110173 66 55 51
-0.111534 0.073330 0.110943 41 38 40
0.026328 -0.018823 0.063858 87 69 61
-0.040130 -0.239993 0.058749 49 47 51
-0.165233 -0.134004 0.104107 59 63 53
-0.084070 -0.048768 0.091853 141 137 138
-0.125851 0.208935 0.112601 53 52 47
-0.231485 -0.358718 0.095947 77 58 50
-0.221500 -0.365801 0.092061 51 50 41
-0.168550 -0.136617 0.104619 57 63 52
-0.227650 -0.320634 0.099495 90 67 57
-0.108779 -0.155497 0.085226 40 37 39
-0.119720 0.145022 0.114033 44 39 38
-0.014749 -0.100856 0.065124 105 94 87
-0.139765 -0.213226 0.087133 41 39 43
-0.115959 0.113496 0.113279 106 86 78
-0.090230 0.042309 0.104353 39 36 37
-0.215158 -0.279276 0.100925 86 63 54
-0.101655 -0.010569 0.101549 133 130 131
-0.154001 -0.147650 0.099757 40 37 39
-0.144165 -0.262656 0.081832 39 36 37
-0.105377 -0.014651 0.102051 88 85 87
-0.038975 -0.455068 0.060523 46 46 39
-0.127119 -0.191175 0.086151 40 37 39
-0.148287 0.014111 0.112335 94 71 58
-0.061763 0.031482 0.095535 39 36 38
-0.145504 -0.205890 0.089906 40 38 40
-0.169486 -0.201313 0.097637 42 40 44
-0.074383 -0.129627 0.078003 41 38 41
0.024564 -0.040087 0.062332 98 77 66
-0.059051 -0.200597 0.065419 41 39 43
-0.060479 -0.394798 0.055976 48 48 43
-0.070210 0.198212 0.112474 49 53 44
-0.117032 0.194942 0.113700 34 31 29
-0.061935 -0.066536 0.082570 147 144 144
-0.093103 -0.087400 0.089505 41 38 40
-0.081497 -0.300690 0.061139 59 64 53
0.010771 0.042293 0.074710 51 52 47
-0.068418 0.010687 0.094855 136 133 135
-0.094010 -0.172462 0.078354 40 39 40
-0.084219 -0.261617 0.065153 37 36 37
-0.207466 -0.376602 0.086266 54 57 48
-0.236118 -0.330690 0.100604 89 67 55
-0.036370 -0.018463 0.081064 38 35 37
-0.138273 -0.273425 0.078572 41 41 41
-0.223152 -0.458688 0.080102 52 54 46
-0.192035 -0.194875 0.104235 52 48 55
-0.077710 -0.258380 0.064011 39 36 38
-0.028892 0.085292 0.092657 174 171 170
0.010264 -0.070306 0.062582 87 69 61
-0.053357 -0.284051 0.058021 78 60 51
-0.221900 -0.499243 0.074443 50 52 43
-0.216145 -0.292913 0.099618 82 63 53
-0.105748 -0.142879 0.085982 40 37 40
-0.040122 -0.067858 0.075709 38 35 37
-0.125105 -0.242834 0.078581 41 38 40
-0.141063 0.097520 0.114044 174 171 170
-0.102622 -0.266841 0.069138 54 57 50
-0.234490 -0.358551 0.096835 78 59 51
-0.019210 -0.130742 0.063278 67 52 44
-0.111226 0.072581 0.110853 41 38 40
-0.095829 -0.278632 0.066153 56 58 48
-0.224570 -0.267693 0.104499 84 64 53
-0.117284 0.167497 0.114047 37 34 33
-0.050026 -0.022347 0.084811 40 37 39
-0.077620 -0.127651 0.079255 42 39 43
-0.041939 -0.064207 0.076724 38 35 37
-0.251746 -0.406031 0.095904 126 120 119
-0.165156 -0.284330 0.085479 37 36 37
-0.014782 -0.067948 0.068603 53 44 40
-0.172459 -0.307556 0.084627 60 62 53
-0.074588 0.031570 0.099183 38 36 37
-0.029171 -0.129219 0.065630 60 45 41
-0.054566 0.045813 0.095237 42 39 40
-0.129775 0.063099 0.112603 40 38 39
-0.138126 -0.035324 0.107479 42 39 44
-0.062205 -0.166316 0.069920 42 39 42
-0.019121 -0.075953 0.068833 53 43 39
-0.161231 -0.202974 0.095047 42 40 42
-0.027909 0.000611 0.080991 47 38 32
-0.134102 0.182379 0.112899 42 39 37
-0.132566 -0.090454 0.100622 42 39 42
-0.169384 -0.082309 0.109502 98 76 64
-0.175997 -0.162203 0.103774 57 62 51
-0.162865 -0.075118 0.108909 87 69 60
-0.115522 0.078104 0.111742 43 40 42
-0.084673 0.142915 0.111374 37 35 34
-0.077264 0.011447 0.097510 136 132 135
-0.078563 0.075644 0.104979 40 37 39
-0.104374 -0.074469 0.094626 40 37 40
-0.169678 -0.208650 0.096791 42 39 43
-0.095881 -0.067192 0.093025 144 141 142
-0.069876 -0.120794 0.077791 40 37 39
-0.047487 -0.219512 0.061320 47 44 50
-0.098698 -0.212580 0.074573 40 37 39
-0.088238 -0.124210 0.083016 40 37 39
-0.244591 -0.452258 0.087672 89 77 61
-0.054972 -0.190089 0.065524 42 40 42
-0.248946 -0.431128 0.091838 75 83 80
-0.214616 -0.277470 0.100987 86 63 54
-0.152623 -0.096180 0.104967 44 38 34
-0.081644 0.280369 0.113625 49 51 43
-0.013317 -0.069462 0.068058 52 43 39
-0.251396 -0.398961 0.096685 137 130 128
-0.058454 -0.363148 0.055997 54 54 45
-0.237288 -0.318054 0.102315 93 69 59
-0.036243 -0.437518 0.059737 105 81 55
-0.044503 -0.045364 0.079988 43 40 42
-0.036234 -0.358634 0.056257 85 63 54
-0.182086 -0.264828 0.093313 40 37 39
-0.221846 -0.416841 0.085332 52 53 45
-0.224525 -0.287137 0.102459 80 60 53
-0.092753 -0.155910 0.080163 39 37 39
-0.169442 -0.118561 0.106540 68 61 51
-0.157175 -0.153099 0.099979 34 32 33
-0.103996 0.050937 0.108079 98 92 94
-0.115535 0.110144 0.113138 108 87 80
-0.040941 -0.176837 0.063668 46 43 48
-0.118264 -0.235870 0.077412 41 38 40
0.014986 -0.045794 0.063795 90 70 62
-0.031956 -0.026432 0.078640 40 36 39
-0.077590 -0.181871 0.072310 40 39 40
-0.194610 -0.231237 0.100970 43 40 43
-0.102622 0.113272 0.112013 68 54 48
-0.129596 -0.062906 0.102905 40 37 39
-0.130814 -0.266160 0.077256 36 35 36
-0.050420 -0.182517 0.065226 45 43 48
0.006075 -0.066030 0.063835 80 65 57
-0.163422 -0.087692 0.108008 81 65 56
-0.107154 -0.212765 0.077066 39 37 39
-0.029276 -0.005475 0.080600 62 60 53
-0.131331 0.213065 0.111804 49 54 44
-0.063241 -0.468785 0.057915 53 55 47
0.010699 0.014949 0.071361 90 73 64
-0.097163 -0.174787 0.079013 40 39 40
-0.037518 -0.190510 0.061792 42 41 46
-0.043510 -0.442251 0.058967 118 89 64
-0.122492 0.243774 0.111239 51 54 45
-0.193625 -0.218498 0.102133 42 40 44
-0.131013 -0.140734 0.094048 40 39 40
-0.123852 0.009374 0.108441 40 37 39
-0.013665 -0.098122 0.065145 85 67 62
-0.031779 -0.177493 0.061768 51 51 53
-0.140930 -0.159118 0.094639 37 35 36
-0.165479 0.013301 0.113669 106 81 69
-0.063400 -0.020525 0.089239 138 135 135
-0.169411 -0.082978 0.109458 98 76 64
-0.193239 -0.217348 0.102161 43 40 45
-0.160989 0.039842 0.113946 111 88 77
-0.036548 -0.042895 0.077874 38 35 37
-0.091422 0.108197 0.110187 63 50 44
-0.102687 -0.106118 0.089973 41 38 40
-0.250052 -0.410038 0.094902 123 117 116
-0.080044 -0.172547 0.074168 40 39 40
0.019012 -0.061178 0.061652 93 73 61
-0.015308 0.065126 0.085756 46 45 42
-0.041972 0.085220 0.096518 174 171 170
-0.213338 -0.376246 0.088151 51 54 45
-0.162258 -0.163503 0.100139 38 36 39
-0.129972 0.176634 0.113409 39 36 35
-0.142532 -0.210575 0.088355 41 39 42
-0.026578 0.032567 0.084886 71 54 46
-0.085972 -0.298724 0.062132 55 61 50
-0.220112 -0.288427 0.101188 80 61 50
-0.066159 0.050402 0.099099 48 45 46
-0.063500 -0.172476 0.069556 41 39 42
-0.005253 0.041705 0.079465 63 66 56
0.003622 0.001454 0.071710 86 68 57
-0.098784 0.068304 0.108506 40 36 38
-0.096974 -0.251928 0.069345 39 36 38
-0.133807 -0.081621 0.101935 43 40 42
-0.176461 -0.198587 0.099889 43 40 45
-0.055031 -0.390546 0.056063 79 84 85
-0.083993 -0.287215 0.062722 36 34 35
-0.042152 -0.375361 0.056321 128 119 118
-0.135581 -0.211235 0.086092 40 39 40
-0.053056 -0.313990 0.056756 79 60 52
-0.062893 -0.440695 0.056795 51 51 45
-0.216351 -0.344580 0.093273 47 48 40
-0.158225 -0.199909 0.094550 41 39 43
-0.105473 -0.030000 0.100352 86 83 82
-0.090086 -0.129727 0.082850 41 38 40
-0.046348 -0.302342 0.056635 83 63 54
-0.111108 0.120991 0.113157 66 54 47
-0.096893 0.071043 0.108375 40 37 39
-0.088195 0.175512 0.113204 35 32 29
-0.223112 -0.399470 0.088075 51 52 44
-0.034919 -0.012826 0.081369 38 35 37
-0.239582 -0.376465 0.096076 95 87 86
-0.073055 -0.192303 0.069824 39 37 39
-0.093472 -0.089474 0.089342 41 38 40
-0.185503 -0.230145 0.098640 41 39 42
-0.136615 -0.034175 0.107276 43 40 43
-0.086049 -0.317611 0.060657 53 55 47
-0.095775 -0.229767 0.071616 41 38 40
-0.175053 -0.191660 0.100312 49 47 52
-0.108417 0.049377 0.108774 62 59 61
-0.067533 -0.082741 0.082135 42 39 41
-0.224605 -0.274055 0.103860 87 65 54
-0.065900 -0.097625 0.079634 41 38 40
-0.167452 -0.053934 0.111086 100 76 64
-0.031914 -0.111680 0.068157 60 55 49
-0.104095 0.242604 0.113227 51 54 45
-0.125292 -0.085422 0.099249 40 37 40
-0.151870 -0.171164 0.096319 40 38 40
-0.041566 -0.390772 0.056780 130 122 120
-0.040457 -0.256499 0.057904 123 101 104
-0.141017 -0.141640 0.096861 39 36 38
-0.052222 -0.107737 0.074207 44 41 45
-0.168371 -0.115148 0.106624 81 62 53
-0.057435 -0.158514 0.069545 41 38 43
-0.044859 -0.182874 0.063950 43 40 46
-0.037657 -0.326530 0.055932 92 70 58
-0.060330 -0.231578 0.062790 43 40 45
-0.148030 0.033459 0.113091 98 74 62
-0.052853 -0.415271 0.056726 73 89 94
-0.212308 -0.297418 0.098023 78 62 55
-0.237370 -0.351578 0.098498 80 60 49
-0.223418 -0.424625 0.084772 51 52 44
-0.026087 0.071425 0.089967 163 159 158
-0.159808 -0.075978 0.108281 79 62 55
-0.104774 0.228537 0.113582 52 54 46
-0.100111 -0.130835 0.085844 40 37 39
-0.104498 0.187675 0.114061 34 31 28
-0.111429 -0.053288 0.099248 42 39 41
-0.175077 -0.306907 0.085536 60 62 54
-0.016339 0.079818 0.088063 53 47 42
-0.187842 -0.302482 0.090114 54 57 48
-0.070360 -0.281302 0.060652 41 39 41
0.006413 -0.041466 0.066166 55 43 35
-0.036175 -0.380166 0.056842 108 100 101
-0.081430 0.078243 0.105869 39 36 37
-0.108153 0.088777 0.111391 42 38 40
-0.044512 -0.175547 0.064568 42 40 44
0.025866 -0.020728 0.063781 87 69 61
-0.128386 0.169707 0.113677 40 36 36
-0.219016 -0.287911 0.100960 83 64 54
-0.072747 -0.202852 0.068545 39 37 39
-0.229037 -0.480141 0.079063 50 52 44
-0.062066 0.004922 0.092204 137 134 135
-0.174026 -0.224357 0.096091 41 39 41
-0.203471 -0.329114 0.091388 49 50 42
-0.169383 -0.077200 0.109867 99 76 64
-0.138211 0.025021 0.111717 41 37 40
-0.085109 0.012421 0.099798 136 133 133
-0.023100 -0.090282 0.068264 60 50 43
-0.135579 -0.263680 0.079035 39 36 37
-0.180526 -0.166292 0.104428 57 62 51
0.007880 0.033062 0.074391 51 55 46
-0.146818 0.010273 0.111986 102 77 66
-0.037575 0.039576 0.089270 39 36 37
-0.166350 -0.130150 0.104755 57 61 51
-0.081979 0.225828 0.113978 51 54 45
-0.145250 -0.130575 0.099381 40 37 40
-0.047605 -0.214671 0.061729 47 44 50
0.009143 -0.072065 0.062655 87 68 60
-0.131348 0.210065 0.111956 51 53 47
-0.124301 -0.096478 0.097647 42 39 41
-0.060420 -0.216395 0.064190 43 40 45
-0.078576 0.023902 0.099369 133 130 130
-0.024246 0.001942 0.080034 61 48 42
-0.070139 -0.212650 0.066823 39 37 39
-0.109899 0.172477 0.114055 36 32 32
-0.064248 0.011634 0.093736 137 133 134
-0.188592 -0.267809 0.094869 39 37 39
0.001714 -0.013810 0.070423 95 74 65
-0.009418 -0.020567 0.072708 65 56 50
0.021933 -0.114192 0.057791 58 63 53
-0.237748 -0.382830 0.094734 124 119 116
-0.150132 -0.143564 0.099184 34 33 32
0.000911 0.030916 0.076177 67 68 57
-0.063547 -0.021656 0.089134 138 135 135
-0.115262 -0.007851 0.105135 40 37 39
-0.146767 -0.107623 0.102377 44 41 43
-0.036172 0.020099 0.086209 39 36 38
-0.183501 -0.233008 0.097735 41 39 41
-0.126698 -0.190279 0.086141 40 37 39
-0.196435 -0.244641 0.099918 42 39 41
-0.037564 -0.030094 0.079879 37 34 36
-0.255969 -0.418203 0.095605 105 99 96
-0.135390 -0.068789 0.103698 44 41 46
-0.053279 -0.010770 0.087396 41 37 40
-0.222140 -0.317403 0.098362 87 66 56
-0.044833 -0.331614 0.055997 83 62 53
-0.168222 -0.129494 0.105246 56 59 50
-0.033021 -0.044159 0.076642 42 42 43
-0.186330 -0.222573 0.099760 42 40 44
-0.105465 0.238607 0.113253 51 54 45
-0.248711 -0.380189 0.098219 131 125 123
-0.203714 -0.378982 0.084767 58 61 51
-0.242800 -0.456858 0.086491 111 89 65
-0.099743 -0.157361 0.082142 39 37 39
-0.011695 -0.015335 0.074012 69 55 50
-0.098113 -0.095097 0.090029 41 38 40
-0.143107 -0.007572 0.110456 46 39 42
-0.016379 -0.045856 0.071597 68 74 62
-0.152992 -0.145129 0.099778 36 34 36
-0.105558 -0.262540 0.070419 36 36 36
-0.015006 -0.041946 0.071685 57 61 49
-0.101092 -0.215560 0.074899 40 37 39
-0.142523 -0.137179 0.097835 43 40 43
-0.156570 -0.094179 0.106036 53 43 37
-0.132683 0.030323 0.111300 39 36 38
-0.078520 0.090581 0.106389 42 39 41
-0.031738 -0.143129 0.064840 72 52 44
-0.036060 -0.394603 0.057403 145 136 135
-0.183960 -0.260269 0.094461 40 37 39
-0.019069 -0.035405 0.073640 75 81 69
-0.109781 0.203469 0.113855 35 32 29
-0.061093 -0.086363 0.079650 41 38 40
-0.046107 0.080240 0.097088 50 48 49
-0.109809 -0.204996 0.078895 39 37 39
-0.016839 -0.037262 0.072771 64 70 57
-0.056358 -0.288874 0.058130 78 59 51
-0.068618 -0.284932 0.060101 40 38 40
-0.234895 -0.353675 0.097550 78 60 48
-0.057390 0.030946 0.094176 40 37 39
-0.034893 -0.093249 0.071063 46 42 42
-0.216316 -0.298201 0.099042 84 65 54
-0.151146 -0.128159 0.101230 48 45 46
-0.072861 -0.236427 0.065040 41 38 40
-0.018854 0.037280 0.083102 74 57 49
-0.046271 -0.192609 0.063356 45 44 48
-0.056331 -0.011387 0.088266 62 55 57
-0.211690 -0.201245 0.107871 56 58 49
-0.104436 0.168933 0.113920 35 32 31
-0.171160 -0.099439 0.108510 101 77 64
-0.118268 -0.278169 0.072068 52 56 46
-0.039342 -0.236931 0.058821 49 47 53
-0.090042 -0.166661 0.077907 40 39 40
-0.123138 0.076597 0.112522 44 41 43
-0.065619 -0.296393 0.058907 55 60 49
-0.197521 -0.239628 0.100784 42 39 40
-0.114277 0.197732 0.113773 33 30 29
-0.234889 -0.328995 0.100472 90 68 55
-0.143742 -0.006319 0.110632 109 81 82
-0.080428 0.123770 0.109491 68 59 57
-0.031981 -0.334288 0.056029 88 68 55
-0.076627 0.005799 0.096633 35 32 32
-0.053524 -0.216167 0.062758 44 42 47
-0.212297 -0.240872 0.104334 90 73 76
-0.246415 -0.405532 0.094401 126 120 118
-0.097641 -0.112579 0.087536 40 37 39
-0.097501 0.099812 0.110563 77 61 58
-0.107925 0.198605 0.113977 35 32 29
-0.074153 0.167112 0.111363 38 35 33
-0.220853 -0.266926 0.103698 75 56 47
-0.083216 0.093238 0.107587 75 61 61
-0.117220 -0.132381 0.090961 41 38 40
-0.146546 -0.109899 0.102073 45 41 47
-0.063031 -0.217721 0.064642 42 40 44
-0.050105 0.031684 0.092077 38 35 37
-0.068777 -0.027527 0.089970 38 35 39
-0.092927 0.217801 0.114063 42 39 36
-0.039409 -0.091297 0.072561 40 37 40
-0.258941 -0.387351 0.100173 101 110 111
-0.062077 0.019813 0.094141 134 132 133
-0.121257 -0.139063 0.091315 41 38 40
-0.040663 -0.197307 0.061832 44 43 46
-0.094703 -0.255931 0.068303 38 36 37
-0.067356 -0.007507 0.092183 89 88 92
-0.028905 0.003720 0.081718 83 61 58
-0.037533 -0.277368 0.056776 82 62 53
-0.192260 -0.224308 0.101137 42 40 43
-0.002448 -0.003058 0.072874 97 76 66
-0.153777 -0.120365 0.102755 61 48 43
-0.014024 0.049970 0.083303 83 66 59
-0.212022 -0.348591 0.091434 48 48 43
-0.104554 -0.096429 0.091830 41 38 40
-0.153651 -0.182733 0.095385 39 37 39
-0.093034 -0.189696 0.075816 40 38 40
-0.213405 -0.384871 0.087009 54 55 48
-0.094522 0.152763 0.112920 35 32 30
-0.131442 -0.143742 0.093789 40 39 40
-0.084412 0.115775 0.109581 69 57 50
-0.043414 0.015077 0.087798 39 36 37
0.005160 0.042072 0.076346 51 52 47
-0.050556 -0.039881 0.082607 40 37 40
0.007581 0.013965 0.072113 90 70 62
-0.165501 -0.293421 0.084357 38 35 37
-0.154206 -0.245471 0.087300 40 39 40
-0.011844 -0.061449 0.068568 62 55 50
-0.223741 -0.410992 0.086718 52 53 45
-0.072768 0.230965 0.113727 50 55 46
-0.087489 -0.261215 0.065956 37 35 36
-0.203603 -0.325570 0.091895 48 49 41
-0.231905 -0.297703 0.103159 87 66 55
-0.124215 0.072831 0.112466 42 40 42
-0.080340 -0.026473 0.093633 142 137 138
-0.121296 -0.053634 0.101823 42 39 41
-0.088857 -0.126992 0.082835 40 37 40
-0.031663 -0.332674 0.056019 92 69 58
-0.087541 0.127379 0.110846 52 45 41
0.007889 0.026796 0.073603 54 58 49
-0.244791 -0.501289 0.081114 51 54 45
-0.080022 0.038307 0.101407 38 35 37
-0.109600 -0.157056 0.085272 40 37 39
-0.224504 -0.313232 0.099508 83 64 53
-0.016414 0.027478 0.081020 79 60 51
-0.065854 -0.249405 0.062358 42 39 44
0.014751 0.008058 0.069455 91 72 64
-0.069876 -0.312421 0.058550 54 59 48
-0.073663 0.070159 0.103264 39 36 38
-0.220594 -0.309063 0.098930 85 64 54
-0.064956 -0.202005 0.066679 40 39 40
-0.200649 -0.292012 0.095345 54 57 48
-0.151079 -0.197011 0.092784 39 36 39
-0.234916 -0.337442 0.099500 85 65 54
-0.080464 0.087620 0.106530 42 39 40
-0.108823 -0.000596 0.104373 39 36 37
-0.156834 -0.108802 0.104684 61 50 44
-0.219089 -0.407879 0.085680 53 54 46
-0.037518 0.020374 0.086668 39 36 38
