ply
format ascii 1.0
element vertex 1253
property float x
property float y
property float z
property uchar red
property uchar green
property uchar blue
end_header
0.370261 0.667070 -0.369043 34 46 36
-0.046470 -0.733027 -0.394174 43 51 38
0.070455 -0.484188 -0.396906 45 51 39
-0.325290 0.205368 -0.406405 255 255 255
-0.589120 0.571132 -0.363238 33 40 32
-0.184381 0.409236 -0.367599 38 50 40
-0.217360 -0.766006 -0.368903 39 46 37
-0.646083 -0.460203 -0.377219 43 55 41
-0.691054 -0.187379 -0.386359 61 76 57
0.124420 0.340280 -0.358046 40 52 38
0.772002 -0.361267 -0.393827 49 60 46
-0.079449 -0.106431 -0.382449 59 72 55
-0.244342 0.739023 -0.369505 31 43 33
-0.514168 -0.346277 -0.385109 44 56 42
-0.094439 0.655077 -0.368626 35 47 37
-0.427224 -0.130416 -0.352655 66 79 61
-0.538153 0.259333 -0.388269 39 46 38
0.277321 -0.484188 -0.387607 46 54 41
0.244342 -0.475193 -0.366394 47 55 42
-0.412234 -0.259333 -0.357238 44 56 42
-0.397244 0.610106 -0.384752 34 46 32
0.682060 0.451209 -0.408153 36 48 34
-0.700048 -0.775000 -0.378164 45 51 39
-0.550145 -0.460203 -0.397769 47 59 45
-0.763008 0.301306 -0.372744 39 46 38
-0.064458 0.283317 -0.380392 40 52 38
0.478192 0.253337 -0.371246 40 52 38
-0.439217 0.352273 -0.385038 41 53 39
-0.367263 -0.088443 -0.361097 60 75 56
-0.529159 0.226354 -0.376823 37 42 35
0.619101 0.208366 -0.395494 37 48 35
0.451209 -0.400242 -0.414596 49 59 46
0.634091 -0.472195 -0.390143 48 60 46
-0.382253 0.166393 -0.378312 255 255 255
-0.715039 0.667070 -0.378145 36 48 38
-0.493182 -0.334284 -0.388572 48 56 43
-0.094439 0.355271 -0.381917 37 49 35
0.532157 0.145406 -0.376687 41 49 36
0.163395 -0.457205 -0.380292 45 51 39
-0.382253 -0.760010 -0.384671 41 49 36
0.670068 0.352273 -0.359140 38 50 36
-0.679062 0.697050 -0.409640 35 47 37
0.457205 0.079449 -0.403951 44 52 39
0.577128 0.544149 -0.362717 20 20 20
-0.643085 -0.553143 -0.407613 48 58 45
0.706044 0.691054 -0.385593 25 29 23
0.574130 -0.013491 -0.374676 86 99 81
-0.076451 -0.061460 -0.373365 63 76 60
0.421228 -0.517166 -0.362489 50 57 45
0.757012 -0.601112 -0.379924 47 55 42
0.664072 -0.148404 -0.389737 64 77 59
0.721035 -0.748017 -0.389253 42 52 41
0.313298 0.448211 -0.388848 38 50 36
-0.763008 -0.682060 -0.382203 51 64 48
-0.034478 -0.133414 -0.386679 57 70 53
-0.589120 0.217360 -0.368572 36 43 36
-0.355271 0.634091 -0.377069 36 48 34
-0.211364 0.025484 -0.381317 72 86 68
-0.286315 0.043472 -0.381928 91 106 85
-0.460203 -0.334284 -0.364956 47 56 42
-0.001499 0.310300 -0.381103 38 50 36
-0.661074 0.586122 -0.388219 24 30 23
0.607108 -0.586122 -0.383478 47 55 42
0.529159 -0.379255 -0.380973 49 61 47
0.436219 -0.172389 -0.384507 52 64 50
-0.271325 -0.619101 -0.385542 45 53 40
0.646083 -0.250338 -0.381503 59 72 55
-0.439217 0.625097 -0.411029 33 45 32
0.736025 -0.244342 -0.360177 50 62 48
-0.244342 0.112427 -0.387206 102 122 95
-0.754014 0.502176 -0.391384 35 47 37
-0.031480 0.514168 -0.375101 37 49 35
-0.418230 -0.706044 -0.359170 42 50 37
0.160397 -0.328288 -0.376039 46 54 41
0.736025 -0.199371 -0.379021 50 62 48
-0.637089 -0.217360 -0.410191 56 70 53
-0.013491 0.652079 -0.393658 36 48 38
0.487186 0.358269 -0.367882 43 51 38
-0.745019 0.397244 -0.370167 37 49 35
-0.754014 -0.574130 -0.366263 46 59 41
-0.445213 -0.421228 -0.386050 57 69 52
0.421228 0.703046 -0.367583 34 46 36
0.010493 -0.640087 -0.377303 44 52 39
0.496180 -0.598114 -0.361798 44 51 42
-0.250338 0.205368 -0.368557 43 50 42
-0.397244 -0.097437 -0.376512 57 70 53
0.298308 0.688056 -0.383807 34 46 36
-0.472195 0.292311 -0.346927 43 51 38
-0.340280 -0.109429 -0.379637 73 88 69
-0.100435 -0.124420 -0.369806 57 70 53
0.457205 0.439217 -0.364292 38 50 36
0.697050 0.613104 -0.376483 35 47 37
-0.475193 -0.568133 -0.352325 43 56 39
0.103433 0.643085 -0.399664 39 46 38
-0.259333 0.115426 -0.388070 102 123 98
0.640087 -0.043472 -0.375067 59 72 55
0.460203 -0.214362 -0.358815 57 68 56
0.703046 -0.478192 -0.371429 51 59 45
-0.376257 0.157398 -0.390068 255 255 255
0.400242 -0.583124 -0.381303 45 53 40
-0.121422 -0.643085 -0.382477 45 53 40
-0.466199 0.151402 -0.381316 255 255 255
0.481190 -0.031480 -0.351318 65 78 61
-0.304304 0.205368 -0.376063 255 255 255
0.553143 -0.394246 -0.371549 49 61 47
-0.082447 -0.559139 -0.397368 44 52 39
0.022485 0.604110 -0.371351 38 47 34
-0.241344 -0.694052 -0.373276 39 47 34
0.106431 0.334284 -0.373794 40 52 38
0.403240 -0.337282 -0.371527 49 61 47
0.145406 0.739023 -0.363566 34 46 36
-0.307302 -0.742021 -0.381956 45 53 39
-0.586122 0.694052 -0.403684 34 46 36
-0.292311 0.595116 -0.380799 35 47 33
-0.073453 0.304304 -0.367574 41 48 40
0.460203 -0.064458 -0.367341 74 89 70
0.628095 -0.610106 -0.399307 45 53 40
-0.223356 0.712041 -0.392174 28 33 27
0.538153 -0.658075 -0.373497 40 47 39
-0.361267 0.346277 -0.371990 38 50 36
0.268327 0.439217 -0.377398 38 50 36
-0.553143 0.085445 -0.391108 63 64 61
-0.652079 0.766006 -0.360223 28 40 30
0.688056 0.691054 -0.395114 27 33 25
0.061460 0.310300 -0.379784 43 53 39
0.682060 -0.043472 -0.385791 80 91 75
0.469197 0.355271 -0.388304 38 50 36
-0.583124 0.613104 -0.349878 33 45 35
0.487186 0.190377 -0.384217 38 50 40
0.100435 -0.517166 -0.380999 46 54 41
0.091441 0.358269 -0.369033 42 49 41
0.772002 -0.115426 -0.405583 86 99 81
-0.184381 0.028482 -0.370314 67 84 65
0.766006 -0.022485 -0.389390 255 255 255
-0.568133 0.643085 -0.365093 34 46 36
0.697050 0.751015 -0.365610 28 40 30
0.595116 -0.508172 -0.390388 49 61 47
-0.661074 0.259333 -0.366975 42 50 37
0.181383 -0.523162 -0.385307 47 54 42
0.163395 -0.394246 -0.381349 47 53 41
-0.355271 0.637089 -0.377841 36 48 34
-0.091441 0.694052 -0.379390 35 47 37
-0.457205 0.265329 -0.379613 44 52 38
-0.121422 -0.742021 -0.365757 38 46 35
0.394246 0.349275 -0.387249 43 51 38
0.589120 -0.598114 -0.364343 47 55 42
-0.751015 0.175387 -0.342449 40 47 38
-0.514168 0.577128 -0.389339 35 47 37
0.676064 -0.691054 -0.388504 45 53 40
0.034478 0.181383 -0.386892 158 162 167
0.763008 0.709043 -0.384472 35 47 33
-0.472195 0.628095 -0.407391 37 49 35
-0.682060 0.688056 -0.395475 36 48 38
-0.487186 0.331286 -0.384879 41 53 39
0.556141 0.586122 -0.358164 33 45 35
0.346277 0.769004 -0.397865 37 49 39
0.742021 -0.127418 -0.378388 75 88 70
0.043472 -0.526161 -0.391815 47 53 41
-0.757012 0.442215 -0.399694 36 48 36
0.121422 -0.334284 -0.406808 47 53 41
0.121422 0.682060 -0.361898 37 49 35
-0.133414 -0.628095 -0.391402 39 47 34
-0.613104 0.358269 -0.438138 37 49 35
0.145406 0.523162 -0.389891 34 46 32
0.037476 -0.727031 -0.396121 50 57 44
0.118424 -0.457205 -0.402560 44 50 38
0.622099 0.376257 -0.369765 35 46 37
0.694052 0.697050 -0.375572 27 34 26
0.049468 -0.661073 -0.383719 40 48 35
-0.556141 -0.523162 -0.363674 45 57 43
0.013491 0.751015 -0.385344 33 45 35
0.274323 0.592118 -0.362322 36 48 34
-0.658075 0.502176 -0.388787 36 43 35
0.160397 0.367263 -0.389696 43 51 38
-0.625097 0.544149 -0.354076 29 36 28
-0.610106 0.739023 -0.360429 30 42 32
-0.526161 0.064458 -0.386384 149 170 134
0.697050 -0.193375 -0.361956 66 78 62
0.571132 0.268327 -0.373406 41 53 39
0.070455 0.688056 -0.386230 34 46 36
-0.244342 0.073453 -0.375162 87 100 80
-0.526161 -0.757012 -0.400010 41 49 36
-0.334284 0.025484 -0.397843 100 118 92
-0.385251 0.427224 -0.360240 38 50 36
-0.631093 0.592118 -0.377912 21 26 21
0.439217 -0.451209 -0.385692 49 57 44
-0.625097 0.214362 -0.375511 37 44 37
-0.625097 -0.220358 -0.382620 55 69 52
0.601112 -0.118424 -0.382305 74 87 69
-0.151402 -0.616103 -0.364314 38 46 33
0.355271 -0.220358 -0.403373 52 65 48
-0.715039 0.373259 -0.379506 37 49 35
0.727031 -0.598114 -0.382351 47 55 42
0.208366 0.382253 -0.380335 40 52 38
-0.280319 0.532157 -0.384807 37 49 39
0.025484 -0.058462 -0.363284 64 77 59
-0.208366 0.457205 -0.410347 40 53 39
-0.412234 0.109429 -0.400943 31 35 33
0.679062 -0.418230 -0.382303 52 65 47
0.745019 -0.526161 -0.387855 51 59 46
-0.442215 0.202369 -0.393795 57 60 60
0.271325 0.691054 -0.412020 34 46 32
-0.130416 -0.013491 -0.373890 65 80 61
-0.583124 -0.190377 -0.375261 73 88 68
0.382253 -0.220358 -0.369520 54 67 50
-0.520164 0.097437 -0.375413 49 51 53
0.628095 0.484188 -0.385882 34 41 33
0.286315 -0.670068 -0.401137 44 52 39
0.478192 0.097437 -0.397470 39 47 35
0.742021 0.205368 -0.374148 43 51 38
0.490184 -0.613104 -0.376459 45 53 40
-0.628095 0.295309 -0.373667 43 51 38
-0.058462 0.694052 -0.375397 38 46 33
0.484188 0.640087 -0.389726 33 45 35
-0.517166 0.508172 -0.388623 35 47 33
0.010493 0.745019 -0.394197 34 46 36
-0.436219 -0.469197 -0.376413 47 55 42
-0.142408 -0.094439 -0.365253 60 73 56
0.694052 -0.571132 -0.392505 50 58 45
0.163395 -0.520164 -0.361761 46 54 41
-0.757012 -0.184381 -0.354069 64 79 60
0.601112 -0.673066 -0.394129 47 54 45
-0.235348 -0.556141 -0.380661 44 52 39
0.070455 0.736025 -0.389913 34 46 36
-0.166393 -0.199371 -0.387458 55 68 51
0.604110 0.181383 -0.380594 41 53 43
-0.100435 -0.436219 -0.388406 34 38 25
-0.628095 -0.160397 -0.380359 60 74 57
0.286315 -0.655077 -0.370143 44 52 39
0.445213 0.070455 -0.375382 49 61 47
0.148404 -0.325290 -0.386958 47 54 42
-0.610106 0.562137 -0.403041 27 36 28
0.187379 -0.694052 -0.384630 40 47 39
-0.187379 0.601112 -0.391824 89 88 83
-0.700048 0.403240 -0.419057 38 50 36
-0.670068 -0.520164 -0.392920 44 56 42
0.331286 0.259333 -0.364158 41 49 36
-0.010493 -0.043472 -0.380344 69 78 61
-0.256335 -0.445213 -0.357841 45 53 40
0.109429 -0.379255 -0.384617 41 47 37
-0.619101 -0.637089 -0.374541 45 53 40
0.763008 0.157398 -0.382339 43 50 42
-0.310300 0.208366 -0.373110 254 255 255
-0.451209 -0.754013 -0.379006 41 49 36
0.535155 0.454207 -0.361995 37 49 35
-0.313298 0.775000 -0.369484 35 47 37
0.373259 0.232350 -0.369662 42 50 37
-0.109429 0.265329 -0.347416 42 49 41
-0.559139 0.187379 -0.370358 72 67 57
-0.352273 0.301306 -0.395928 42 54 40
0.658075 0.223356 -0.390876 46 54 41
-0.637089 0.595116 -0.366281 27 32 26
0.298308 0.538153 -0.361899 35 47 33
-0.529159 0.640087 -0.402141 36 48 38
0.298308 -0.349275 -0.388326 42 45 30
0.598114 0.433220 -0.388935 37 49 35
0.307302 0.442215 -0.375293 38 50 36
-0.025484 -0.700048 -0.401656 43 51 38
0.706044 -0.103433 -0.396261 88 101 83
0.142408 0.649081 -0.393703 34 46 36
0.157398 0.640087 -0.370066 34 46 35
-0.376257 -0.514168 -0.377662 47 55 42
-0.214362 -0.028482 -0.367418 67 82 63
-0.637089 0.466199 -0.376410 36 43 35
-0.130416 0.703046 -0.386536 35 47 37
0.625097 -0.595116 -0.407428 45 55 42
-0.730029 -0.760010 -0.388819 56 69 52
-0.451209 0.730029 -0.377927 44 56 42
0.742021 -0.736025 -0.384881 51 64 48
0.142408 0.394246 -0.371290 43 51 38
0.382253 -0.373259 -0.376570 49 57 44
-0.400242 -0.460203 -0.366304 47 61 46
-0.706044 -0.259333 -0.398379 48 60 46
0.493182 0.364265 -0.392663 38 50 36
-0.025484 -0.706044 -0.384192 39 46 37
0.205368 0.751015 -0.395595 35 47 37
-0.220358 -0.187379 -0.402858 55 68 51
0.352273 -0.559139 -0.384305 45 53 40
-0.748017 0.313298 -0.386447 36 48 34
0.013491 -0.478192 -0.376094 42 48 36
-0.046470 0.214362 -0.351842 41 48 40
-0.274323 -0.595116 -0.396330 47 58 44
-0.652079 0.463201 -0.362595 38 45 37
0.409236 -0.364265 -0.395167 53 61 48
-0.559139 -0.499178 -0.389701 48 59 45
0.028482 -0.406238 -0.381370 46 52 40
0.091441 -0.304304 -0.395805 55 63 48
0.013491 -0.019487 -0.350717 70 83 65
-0.214362 0.667070 -0.413927 33 46 36
0.421228 -0.433220 -0.415428 48 56 46
-0.538153 0.052466 -0.382801 105 120 95
-0.553143 0.403240 -0.380891 38 45 37
-0.610106 0.214362 -0.403622 36 44 33
-0.433220 0.085445 -0.369497 111 128 103
0.433220 -0.277321 -0.380681 55 68 51
0.229352 -0.730029 -0.391705 39 45 34
0.481190 0.493182 -0.372612 36 47 33
-0.382253 -0.481190 -0.387653 43 55 41
0.703046 -0.355271 -0.382727 52 64 50
-0.757012 -0.319294 -0.373343 44 55 40
-0.193375 0.319294 -0.401757 41 52 38
0.448211 0.178385 -0.397334 41 48 40
-0.421228 0.010493 -0.379797 102 115 90
-0.340280 -0.025484 -0.361314 63 77 59
-0.253337 -0.526161 -0.406268 40 54 39
0.415232 -0.514168 -0.391072 44 52 39
-0.193375 -0.445213 -0.371524 49 57 42
-0.007495 0.043472 -0.408992 71 84 66
-0.478191 0.388250 -0.390645 38 50 40
-0.400242 0.256335 -0.397561 39 46 38
0.364265 0.487186 -0.366899 37 49 35
0.733027 0.373259 -0.363344 41 53 39
0.721035 0.646083 -0.384796 35 47 37
0.610106 -0.496180 -0.356541 50 58 45
0.454207 0.529159 -0.374878 34 46 32
0.319294 0.265329 -0.372995 43 51 38
-0.433220 0.337282 -0.366280 42 54 40
0.601112 -0.289313 -0.390312 55 68 51
-0.706044 -0.106431 -0.377086 67 82 63
-0.538153 -0.001499 -0.378192 83 96 78
-0.688056 -0.217360 -0.364436 58 72 55
-0.547147 -0.601112 -0.363188 45 53 40
-0.484188 0.466199 -0.380516 36 48 38
0.319294 -0.565135 -0.370112 44 52 39
-0.700048 -0.103433 -0.375981 65 79 63
0.580126 -0.178385 -0.359739 61 74 57
0.487186 -0.769004 -0.384752 41 49 36
0.028482 -0.403240 -0.388964 45 51 39
-0.361267 -0.187379 -0.378514 56 69 52
-0.460203 -0.382253 -0.407124 44 56 42
-0.757012 0.481190 -0.367464 36 48 38
0.607108 -0.667070 -0.351694 45 53 40
0.373259 -0.700048 -0.382542 44 52 39
0.226354 -0.709043 -0.373531 40 48 35
-0.649081 -0.241344 -0.380353 64 76 60
-0.538153 -0.625097 -0.404423 45 53 40
0.463201 -0.115426 -0.365396 46 58 48
0.523162 0.475193 -0.382406 37 49 35
-0.367263 -0.586122 -0.370320 44 52 39
0.616103 0.190377 -0.391518 42 54 40
0.220358 -0.439217 -0.383652 46 54 41
-0.586122 -0.427224 -0.361402 48 60 46
-0.772002 -0.769004 -0.401598 41 48 40
-0.685058 -0.361267 -0.368301 48 60 46
-0.139410 0.526161 -0.373530 39 46 33
0.001499 0.760010 -0.391960 33 45 35
-0.319294 0.223356 -0.389827 98 98 92
-0.262331 -0.391248 -0.373845 53 63 47
-0.412234 0.055464 -0.371986 124 143 116
0.760010 0.757012 -0.393592 37 44 36
-0.217360 0.265329 -0.386315 41 49 36
-0.259333 -0.316296 -0.385884 47 55 42
-0.610106 -0.259333 -0.369937 49 61 47
-0.751015 -0.712041 -0.387822 60 75 56
-0.430222 -0.712041 -0.359326 43 51 38
-0.304304 -0.172389 -0.381571 57 70 53
-0.325290 0.598114 -0.354401 36 48 34
-0.124420 -0.430222 -0.376149 41 49 36
0.304304 0.421228 -0.364617 41 49 36
0.565135 0.742021 -0.367969 31 43 33
-0.349275 -0.013491 -0.382035 95 108 89
0.286315 -0.676064 -0.394829 43 51 38
-0.232350 0.379255 -0.400915 41 49 36
-0.040474 -0.742021 -0.374259 39 47 34
-0.070455 0.082447 -0.364222 60 75 56
-0.136412 0.073453 -0.370629 64 79 60
0.301306 0.436219 -0.387296 41 49 36
0.451209 0.628095 -0.377154 34 46 36
-0.253337 0.298308 -0.386915 41 49 36
-0.244342 0.439217 -0.389833 17 19 19
0.733027 0.268327 -0.379445 40 52 38
-0.508172 -0.460203 -0.377714 45 58 41
-0.295309 0.484188 -0.381345 36 48 34
0.559139 0.466199 -0.373435 37 49 35
0.256335 -0.352273 -0.397412 57 65 52
-0.178385 0.163395 -0.376580 41 53 39
-0.553143 0.145406 -0.409336 255 255 255
-0.385251 -0.187379 -0.404133 59 72 55
-0.775000 0.049468 -0.369074 40 47 39
-0.265329 -0.265329 -0.374139 50 62 50
0.427224 0.403240 -0.391339 38 50 36
-0.280319 0.001499 -0.366357 77 90 72
-0.442215 0.307302 -0.359003 41 52 38
0.097437 0.253337 -0.362139 39 46 38
-0.193375 0.397244 -0.369348 39 46 38
0.541151 0.361267 -0.368447 38 50 36
0.127418 -0.385251 -0.357589 45 51 39
0.358269 0.136412 -0.384035 254 254 255
-0.121422 0.634091 -0.366838 35 47 35
-0.157398 0.649081 -0.388615 33 43 34
0.676064 -0.700048 -0.377961 43 51 38
-0.232350 0.118424 -0.390360 82 97 76
0.394246 -0.160397 -0.379189 52 65 49
-0.046470 0.427224 -0.392946 36 48 34
0.277321 0.316296 -0.385398 43 55 41
-0.514168 -0.712041 -0.388577 41 49 36
-0.079449 -0.001499 -0.387283 63 76 58
0.043472 -0.658075 -0.358975 41 49 36
-0.757012 0.400242 -0.375905 36 48 37
-0.592118 -0.412234 -0.387425 48 60 46
-0.478191 0.334284 -0.380846 41 53 39
0.214362 0.307302 -0.390888 44 52 39
-0.736025 0.115426 -0.380888 41 48 40
0.733027 -0.757012 -0.363674 48 58 45
0.427224 -0.619101 -0.386571 46 54 41
-0.118424 -0.019487 -0.411110 65 80 61
-0.655077 -0.202369 -0.386507 61 74 57
-0.181383 -0.652079 -0.377500 42 50 37
-0.700048 -0.193375 -0.388126 59 73 56
0.100435 0.556141 -0.389286 41 47 35
-0.457205 -0.400242 -0.377766 48 59 45
-0.406238 0.454207 -0.352100 35 47 36
-0.115426 -0.007495 -0.380951 65 80 61
0.709043 -0.118424 -0.406747 53 65 51
0.481190 -0.037476 -0.386007 67 79 64
0.343278 0.547147 -0.389110 41 47 35
-0.406238 -0.433220 -0.377118 42 54 40
-0.436219 0.457205 -0.372451 38 50 36
0.703046 -0.127418 -0.358894 49 61 48
0.580126 -0.325290 -0.377586 51 63 49
0.280319 -0.433220 -0.369839 46 54 42
0.409236 -0.418230 -0.391620 48 60 46
0.403240 0.109429 -0.391818 43 50 40
0.718037 0.196373 -0.386774 41 53 39
0.703046 0.178385 -0.399055 44 52 39
-0.268327 -0.322292 -0.360497 52 64 50
0.136412 0.307302 -0.374504 45 53 40
0.268327 0.400242 -0.361670 40 49 36
0.427224 0.451209 -0.374240 39 51 37
0.100435 -0.556141 -0.402798 47 53 41
-0.538153 0.181383 -0.393037 149 144 144
-0.574130 -0.619101 -0.371030 45 53 40
-0.559139 -0.775000 -0.372013 41 49 36
0.595116 -0.652079 -0.394917 47 55 42
0.652079 -0.739023 -0.403814 40 48 35
0.598114 -0.073453 -0.369583 77 90 72
-0.385251 0.622099 -0.346067 37 49 35
-0.469197 0.520164 -0.377967 36 48 38
-0.724033 -0.685058 -0.335413 43 51 38
-0.403240 -0.358269 -0.379013 50 63 46
-0.424226 -0.319294 -0.353311 45 57 43
-0.184381 0.283317 -0.379730 44 52 39
0.268327 0.292311 -0.380075 41 53 39
-0.169391 -0.469197 -0.401550 44 52 39
0.046470 -0.676064 -0.382749 41 49 36
-0.628095 -0.187379 -0.368755 58 72 54
0.298308 0.406238 -0.365686 41 49 36
-0.262331 0.775000 -0.374570 33 45 35
0.028482 -0.517166 -0.384086 45 53 40
-0.451209 -0.244342 -0.377094 50 62 47
-0.691054 0.685058 -0.382361 35 47 36
-0.238346 0.742021 -0.377959 31 43 33
0.091441 0.685058 -0.370194 33 45 31
0.208366 -0.703046 -0.393113 39 47 34
0.616103 0.544149 -0.353481 13 12 11
-0.682060 -0.682060 -0.405095 39 47 34
0.037476 0.673066 -0.405111 36 48 34
-0.190377 0.004497 -0.374605 69 84 65
-0.460203 -0.226354 -0.379236 47 59 45
-0.643085 0.745019 -0.392577 28 40 30
-0.124420 -0.205368 -0.388244 53 66 49
0.181383 -0.430222 -0.370681 48 56 43
0.448211 -0.658075 -0.390630 45 53 40
0.499178 -0.511170 -0.363643 50 58 45
-0.577128 -0.148404 -0.358665 61 75 58
0.538153 -0.373259 -0.385480 50 62 48
-0.505174 0.130416 -0.369709 255 255 255
0.025484 -0.031480 -0.379072 67 80 62
0.712041 0.574130 -0.397203 36 48 38
0.493182 0.382253 -0.410352 41 53 39
0.328288 -0.616103 -0.398025 45 53 40
-0.346277 0.355271 -0.373443 37 47 34
-0.607108 -0.253337 -0.366248 46 58 44
0.280319 -0.718037 -0.374120 42 50 37
-0.178385 0.112427 -0.381629 62 77 58
0.082447 0.148404 -0.375757 255 255 255
-0.736025 0.112427 -0.372730 43 50 42
-0.454207 0.283317 -0.371680 45 53 41
0.682060 -0.160397 -0.394573 60 73 57
0.154400 0.631093 -0.337074 34 46 32
-0.670068 0.379255 -0.396051 38 50 36
0.526161 -0.490184 -0.390942 51 59 46
0.544149 0.157398 -0.392990 43 50 42
-0.256335 0.481190 -0.386101 35 47 33
-0.085445 0.751015 -0.389604 35 47 37
-0.391248 -0.169391 -0.382412 53 67 50
-0.274323 0.748017 -0.374838 33 45 35
0.604110 -0.400242 -0.401306 48 60 46
-0.766006 -0.520164 -0.378725 49 62 44
-0.415232 -0.451209 -0.378768 50 63 48
-0.025484 -0.628095 -0.360992 45 53 40
-0.718037 -0.541151 -0.385801 44 52 39
0.706044 -0.235348 -0.392687 56 69 52
-0.610106 -0.667070 -0.373759 44 52 39
0.043472 0.646083 -0.384342 36 48 34
0.427224 -0.268327 -0.372621 55 68 51
0.415232 -0.547147 -0.359181 68 81 64
-0.370261 0.469197 -0.382138 37 49 35
-0.355271 -0.121422 -0.393808 50 63 47
-0.532157 -0.136412 -0.369774 60 73 56
-0.592118 0.529159 -0.385782 34 46 36
-0.478191 -0.436219 -0.376518 46 54 41
-0.694052 0.127418 -0.393763 35 42 34
-0.010493 0.382253 -0.389323 37 49 35
-0.283317 0.187379 -0.368138 255 255 255
-0.406238 0.649081 -0.394530 38 50 40
-0.442215 -0.724033 -0.354979 42 50 37
-0.622099 0.031480 -0.393365 68 83 64
0.445213 0.088443 -0.377748 42 49 41
0.397244 0.328288 -0.372957 43 51 38
0.520164 -0.340280 -0.401312 54 65 48
-0.580126 0.670068 -0.376711 34 46 36
-0.730029 -0.253337 -0.366881 60 75 55
0.196373 -0.262331 -0.398370 44 56 42
-0.022485 -0.106431 -0.426405 58 71 54
-0.070455 0.271325 -0.372217 40 49 40
0.235348 0.733027 -0.391731 34 46 36
0.091441 0.703046 -0.400220 35 47 33
0.010493 -0.418230 -0.390133 45 51 39
0.628095 -0.472195 -0.358662 49 62 48
-0.289313 0.265329 -0.343272 40 47 39
-0.550145 -0.565135 -0.364660 47 55 42
-0.289313 -0.376257 -0.366855 47 55 42
-0.181383 -0.508172 -0.389721 46 54 41
0.526161 -0.451209 -0.373787 51 59 46
-0.634091 0.319294 -0.358900 41 51 37
0.385251 0.526161 -0.375538 36 48 34
-0.700048 0.547147 -0.372334 36 48 34
-0.727031 0.271325 -0.414066 38 49 35
0.325290 0.421228 -0.373488 38 50 36
0.526161 -0.172389 -0.374133 62 71 56
-0.595116 0.601112 -0.374142 5 9 8
0.145406 0.274323 -0.385597 43 52 39
-0.688056 -0.652079 -0.370054 38 50 40
0.535155 -0.424226 -0.398440 49 61 47
0.472195 -0.709043 -0.381136 43 51 38
-0.106431 0.505174 -0.363597 36 48 34
0.421228 0.400242 -0.378863 38 50 36
-0.670068 -0.148404 -0.373518 60 74 57
-0.604110 -0.481190 -0.369808 45 56 42
-0.190377 0.268327 -0.376507 43 50 41
0.103433 0.463201 -0.356522 36 48 34
-0.439217 0.616103 -0.380285 33 45 32
0.325290 0.169391 -0.369718 255 255 255
-0.631093 -0.664072 -0.389337 43 51 38
0.709043 -0.040474 -0.369725 52 58 50
0.112427 0.754014 -0.394974 34 46 36
-0.400242 0.661074 -0.368355 42 54 40
0.727031 0.004497 -0.356695 255 255 255
0.373259 0.625097 -0.391019 33 45 35
-0.493182 -0.538153 -0.368438 46 54 41
0.634091 0.325290 -0.397242 40 51 37
0.541151 0.133414 -0.355488 44 51 43
0.484188 -0.067457 -0.385344 51 59 48
-0.283317 0.316296 -0.372909 40 47 39
-0.709043 0.400242 -0.400901 38 50 36
-0.364265 0.739023 -0.359063 36 48 38
-0.073453 -0.553143 -0.368804 45 53 40
-0.358269 -0.433220 -0.367118 47 55 42
0.625097 -0.103433 -0.392542 72 85 67
0.475193 0.229352 -0.393659 40 52 38
-0.121422 0.004497 -0.375747 64 79 60
0.724033 -0.163395 -0.393575 47 59 45
0.607108 0.046470 -0.400365 255 255 255
0.076451 -0.094439 -0.397404 55 68 52
-0.571132 -0.379255 -0.406179 48 60 46
-0.106431 -0.211364 -0.392091 54 67 50
0.403240 -0.604110 -0.400215 44 52 39
0.331286 0.169391 -0.382709 255 255 255
-0.565135 0.205368 -0.379315 40 47 39
0.427224 0.421228 -0.385141 37 49 35
-0.421228 0.481190 -0.359131 38 50 36
0.646083 0.034478 -0.353887 255 255 255
0.394246 -0.196373 -0.367228 50 62 49
0.700048 0.361267 -0.393663 40 52 38
0.667070 -0.304304 -0.394958 55 68 51
0.628095 0.160397 -0.394675 43 50 42
-0.457205 -0.412234 -0.374328 50 58 45
-0.622099 -0.388250 -0.357194 49 61 47
0.436219 -0.145406 -0.389120 54 66 52
-0.460203 0.724033 -0.360987 43 55 41
-0.316296 -0.205368 -0.384456 56 69 52
-0.367263 -0.142408 -0.405721 78 92 73
0.661073 0.643085 -0.392280 33 45 35
-0.637089 0.262331 -0.389039 43 51 38
0.478192 0.151402 -0.378945 41 49 36
-0.085445 0.754014 -0.381387 35 47 37
-0.652079 -0.304304 -0.383578 42 54 40
0.409236 -0.223356 -0.384216 52 65 48
0.133414 -0.307302 -0.380436 46 55 41
-0.244342 -0.745019 -0.387115 44 52 39
0.415232 0.109429 -0.379669 37 42 36
0.580126 -0.406238 -0.382603 49 61 47
-0.559139 0.679062 -0.394410 35 47 37
0.664072 0.712041 -0.379827 30 42 32
-0.706044 0.133414 -0.379148 36 43 35
-0.772002 -0.688056 -0.379741 42 54 40
0.013491 -0.112427 -0.399339 58 71 54
0.364265 -0.148404 -0.351557 54 66 53
-0.418230 -0.655077 -0.399314 42 50 37
-0.274323 0.310300 -0.380950 38 50 36
-0.397244 -0.256335 -0.398066 47 60 43
-0.268327 -0.313298 -0.375423 45 57 43
-0.541151 -0.682060 -0.379652 43 51 38
-0.193375 -0.700048 -0.384159 37 44 37
-0.436219 0.202369 -0.387943 55 58 64
-0.619101 0.700048 -0.371349 31 43 33
0.535155 0.730029 -0.399600 34 46 36
-0.229352 0.382253 -0.389226 43 51 37
-0.388250 -0.181383 -0.356934 55 68 51
-0.103433 0.223356 -0.378356 40 52 38
-0.583124 0.613104 -0.371629 33 45 35
-0.664072 -0.532157 -0.382876 44 56 42
0.739023 0.691054 -0.357684 35 47 34
-0.217360 0.472195 -0.382140 38 50 36
-0.667070 0.160397 -0.382928 36 43 35
0.085445 0.253337 -0.368667 40 47 39
-0.175387 0.316296 -0.377915 41 53 39
0.478192 -0.178385 -0.360280 50 63 46
0.604110 -0.061460 -0.366467 84 97 79
-0.103433 0.001499 -0.385336 63 78 59
0.100435 -0.334284 -0.397316 44 50 38
-0.442215 0.043472 -0.377645 64 79 60
-0.745019 -0.004497 -0.367047 57 71 53
0.361267 0.544149 -0.375298 36 48 34
0.421228 0.166393 -0.376798 39 46 38
0.355271 0.676064 -0.388760 34 46 33
0.670068 -0.310300 -0.375270 54 66 51
0.280319 -0.610106 -0.398298 44 52 39
0.052466 -0.556141 -0.394967 46 52 40
-0.094439 0.391248 -0.362240 36 48 34
0.517166 0.280319 -0.378088 43 51 38
0.379255 0.637089 -0.393095 34 46 33
-0.583124 -0.742021 -0.381279 43 50 42
0.139410 0.205368 -0.377528 255 255 255
-0.298308 0.421228 -0.378099 40 50 37
-0.616103 -0.742021 -0.359659 40 48 35
0.409236 -0.088443 -0.380403 61 74 57
0.361267 0.217360 -0.385534 37 44 36
-0.649081 -0.241344 -0.372181 64 76 60
-0.049468 0.736025 -0.392658 33 46 36
-0.700048 0.028482 -0.403105 51 59 43
0.370261 -0.601112 -0.365784 44 52 39
0.742021 0.520164 -0.389119 38 51 35
0.064458 0.253337 -0.381623 39 46 38
0.412234 -0.412234 -0.371844 56 68 53
-0.535155 -0.613104 -0.359402 45 53 40
-0.745019 0.094439 -0.381082 42 49 41
0.511170 -0.610106 -0.389583 44 52 39
0.451209 -0.283317 -0.387862 54 67 50
0.727031 -0.208366 -0.375087 50 62 47
-0.373259 -0.721035 -0.392406 43 51 38
0.256335 -0.604110 -0.346073 44 52 39
0.406238 -0.502176 -0.394227 40 48 35
0.652079 0.217360 -0.386367 44 52 42
-0.034478 0.526161 -0.391250 37 49 35
-0.433220 -0.106431 -0.392893 59 72 55
0.685058 -0.085445 -0.369705 62 78 61
-0.043472 0.052466 -0.387576 51 65 49
-0.364265 0.733027 -0.364702 39 51 41
0.367263 0.499178 -0.383514 37 49 35
0.652079 0.304304 -0.369116 41 53 39
-0.604110 0.673066 -0.371883 34 46 36
-0.169391 0.007495 -0.366566 68 81 63
-0.160397 -0.148404 -0.391951 57 70 53
-0.241344 -0.205368 -0.400095 55 68 51
-0.349275 -0.316296 -0.400943 51 59 46
0.697050 0.727031 -0.390515 29 41 31
-0.259333 -0.394246 -0.384368 60 73 54
0.250338 0.526161 -0.391416 35 47 33
0.193375 -0.478192 -0.409476 44 52 39
0.628095 0.154400 -0.366909 43 50 42
0.499178 0.007495 -0.378420 70 83 65
-0.307302 -0.238346 -0.389707 51 64 47
-0.463201 -0.658075 -0.364056 40 48 35
0.760010 -0.730029 -0.381111 50 58 45
0.064458 0.043472 -0.352350 78 90 70
-0.730029 -0.517166 -0.379632 41 49 36
-0.538153 -0.193375 -0.382135 48 62 47
0.406238 0.400242 -0.377711 43 51 38
-0.358269 0.097437 -0.406118 133 149 119
0.664072 0.265329 -0.367144 41 54 39
0.592118 0.118424 -0.385465 37 37 36
-0.190377 0.244342 -0.387047 43 50 42
-0.256335 0.475193 -0.400871 34 46 32
-0.373259 -0.502176 -0.397578 43 53 40
0.265329 0.760010 -0.397506 35 47 37
-0.541151 -0.076451 -0.391853 63 76 58
0.583124 -0.520164 -0.384230 49 61 47
-0.274323 0.718037 -0.404186 31 43 33
0.346277 -0.493182 -0.372313 45 53 40
0.385251 -0.640087 -0.359088 44 52 39
-0.211364 -0.100435 -0.353166 62 75 58
0.205368 -0.430222 -0.394028 48 56 43
-0.253337 0.004497 -0.370964 74 89 70
-0.529159 -0.775000 -0.372491 41 49 36
0.244342 -0.652079 -0.394514 43 51 38
-0.019487 -0.028482 -0.365705 68 81 63
0.037476 0.106431 -0.394422 118 134 107
-0.610106 -0.658075 -0.390119 44 52 39
0.079449 0.670068 -0.380304 34 46 36
0.688056 -0.607108 -0.363545 46 54 41
-0.163395 0.136412 -0.376894 51 63 50
-0.286315 0.322292 -0.370251 35 47 33
-0.454207 -0.670068 -0.406126 44 52 39
0.589120 0.334284 -0.391112 39 51 37
0.283317 -0.556141 -0.369018 44 52 39
0.373259 0.718037 -0.373025 35 47 37
0.385251 -0.592118 -0.378446 44 52 39
-0.733027 -0.628095 -0.386711 43 55 41
0.067457 -0.361267 -0.362138 46 52 40
-0.682060 0.748017 -0.363915 37 44 36
0.280319 -0.292311 -0.374590 51 60 45
0.130416 0.310300 -0.390120 41 53 40
-0.142408 0.451209 -0.373652 36 48 34
-0.745019 -0.319294 -0.373740 45 56 43
-0.523162 -0.376257 -0.400781 48 60 46
-0.286315 -0.442215 -0.384605 49 57 43
-0.205368 0.490184 -0.361202 36 48 37
-0.019487 -0.343278 -0.369876 37 45 36
-0.508172 0.316296 -0.383283 42 54 40
0.295309 -0.589120 -0.400848 44 52 39
0.703046 -0.067457 -0.351925 48 55 47
-0.559139 -0.754013 -0.338971 43 51 38
0.664072 -0.283317 -0.409005 52 65 48
0.643085 -0.028482 -0.386574 92 105 84
0.757012 -0.523162 -0.368222 51 59 46
-0.295309 0.325290 -0.373998 36 47 33
-0.235348 0.166393 -0.382029 44 51 43
0.016489 0.490184 -0.389778 37 49 35
-0.673066 0.142408 -0.366700 33 40 32
-0.106431 0.379255 -0.367437 36 48 34
-0.355271 -0.490184 -0.365608 47 55 42
0.034478 -0.331286 -0.367654 44 50 38
0.019487 0.196373 -0.377154 47 54 46
0.283317 0.418230 -0.381853 38 50 36
-0.253337 0.289313 -0.380592 40 48 35
-0.094439 0.013491 -0.393502 64 78 59
-0.712041 0.517166 -0.379488 36 48 34
0.454207 0.391248 -0.369395 38 50 36
-0.061460 -0.073453 -0.401916 62 75 57
0.619101 0.175387 -0.381426 44 52 41
0.238346 0.301306 -0.364543 44 52 39
0.550145 -0.013491 -0.364469 83 96 78
-0.472195 -0.733027 -0.392684 43 51 38
0.565135 -0.064458 -0.365378 79 92 74
0.127418 0.496180 -0.364110 38 45 32
0.127418 0.691054 -0.393692 35 47 33
-0.340280 -0.256335 -0.382597 66 79 62
-0.115426 0.280319 -0.404364 40 51 42
-0.646083 0.259333 -0.374346 43 51 38
0.343278 0.253337 -0.373147 43 51 38
-0.541151 -0.493182 -0.394359 47 59 45
-0.304304 -0.757012 -0.366471 42 50 36
0.232350 -0.463201 -0.368711 46 54 41
-0.610106 -0.541151 -0.385227 47 55 42
0.454207 0.400242 -0.400933 38 50 36
-0.274323 0.763008 -0.385129 33 45 35
-0.769004 -0.244342 -0.391718 54 69 50
-0.538153 -0.058462 -0.405652 56 71 52
0.580126 -0.331286 -0.351466 50 62 48
-0.253337 -0.085445 -0.363034 63 76 59
-0.112427 -0.478192 -0.390294 45 53 40
0.484188 -0.559139 -0.368321 44 52 39
-0.154400 0.523162 -0.369906 38 45 37
0.676064 -0.454207 -0.393955 51 59 46
-0.745019 0.703046 -0.373135 31 43 33
0.055464 -0.451209 -0.370796 45 51 39
-0.322292 0.061460 -0.373857 86 102 81
0.523162 -0.397244 -0.389066 50 62 48
0.487186 -0.673066 -0.386984 47 54 45
-0.769004 0.541151 -0.375380 35 47 33
-0.295309 0.631093 -0.390879 35 47 33
0.574130 0.424226 -0.395992 38 50 36
0.379255 -0.757012 -0.393117 41 49 36
-0.364265 -0.448211 -0.371974 47 55 42
-0.391248 0.442215 -0.394317 40 47 40
0.514168 -0.025484 -0.378158 59 73 56
-0.619101 -0.574130 -0.395117 46 54 41
-0.511170 0.127418 -0.373444 255 255 255
-0.034478 0.499178 -0.369279 37 49 35
-0.532157 -0.523162 -0.410125 44 56 42
-0.451209 -0.334284 -0.356370 48 56 43
0.130416 0.745019 -0.387227 34 46 36
0.451209 0.457205 -0.388321 37 49 35
0.682060 0.706044 -0.361662 30 42 32
0.538153 0.571132 -0.366036 35 47 37
0.586122 0.154400 -0.376175 40 52 42
-0.097437 0.391248 -0.381000 36 48 34
-0.121422 0.241344 -0.373460 42 51 40
0.094439 -0.658075 -0.393933 40 48 35
-0.109429 0.178385 -0.375191 42 54 44
-0.610106 -0.025484 -0.381777 62 76 59
-0.616103 -0.112427 -0.375745 51 65 47
-0.226354 -0.244342 -0.391907 51 64 47
-0.433220 -0.157398 -0.372249 49 62 46
-0.721035 -0.334284 -0.386556 47 59 44
-0.340280 -0.268327 -0.395137 55 68 50
-0.151402 0.205368 -0.358525 43 52 42
-0.436219 0.289313 -0.375791 42 53 42
-0.763008 0.445213 -0.380566 36 49 32
0.508172 -0.661073 -0.370890 44 52 39
-0.727031 0.610106 -0.375554 35 47 36
0.580126 0.184381 -0.355206 39 47 39
0.472195 -0.745019 -0.352771 41 49 37
0.610106 -0.022485 -0.378953 46 58 48
0.481190 -0.733027 -0.386094 41 49 36
0.136412 0.670068 -0.381887 36 47 39
0.511170 0.628095 -0.387618 34 46 36
-0.493182 0.736025 -0.393564 34 46 36
0.454207 -0.166393 -0.391857 56 69 50
-0.544149 0.313298 -0.372263 42 54 40
-0.649081 -0.325290 -0.410430 45 57 42
-0.415232 0.142408 -0.370954 255 255 255
0.310300 0.538153 -0.388212 36 48 34
-0.286315 0.235348 -0.375590 45 52 44
0.400242 -0.487186 -0.378367 42 50 36
0.028482 -0.460203 -0.373134 44 50 38
-0.694052 0.076451 -0.415983 42 50 36
0.361267 0.373259 -0.385440 43 51 38
0.409236 -0.184381 -0.391189 56 69 52
-0.538153 0.601112 -0.391842 37 49 39
-0.061460 0.097437 -0.390982 64 79 60
0.685058 -0.241344 -0.379061 58 71 54
-0.337282 -0.418230 -0.353598 48 56 43
-0.235348 -0.649081 -0.406160 40 48 35
-0.520164 -0.058462 -0.371611 65 78 60
-0.574130 0.220358 -0.364101 38 45 37
-0.427224 0.142408 -0.379598 255 255 255
-0.481190 -0.610106 -0.376131 42 53 41
0.388250 -0.754013 -0.361472 41 49 36
-0.031480 -0.544149 -0.373372 44 52 39
0.160397 0.364265 -0.349427 43 51 38
-0.631093 -0.373259 -0.376404 50 62 46
0.583124 0.115426 -0.392506 37 36 37
0.754013 0.541151 -0.377896 37 49 39
0.772002 0.277321 -0.376850 39 52 38
0.772002 0.394246 -0.410033 41 53 39
0.154400 0.304304 -0.374417 42 54 40
-0.094439 -0.574130 -0.391788 43 51 38
-0.439217 -0.727031 -0.374764 41 49 36
-0.394246 -0.310300 -0.396977 49 58 45
-0.541151 -0.052466 -0.388542 71 88 66
-0.307302 0.496180 -0.383751 38 50 36
-0.418230 0.640087 -0.378505 27 39 29
0.703046 0.058462 -0.375867 255 255 255
-0.037476 0.472195 -0.371356 36 48 34
0.484188 -0.337282 -0.390157 51 64 47
-0.640087 0.184381 -0.370116 38 45 37
-0.007495 -0.130416 -0.353714 56 69 52
0.679062 -0.514168 -0.390561 52 62 48
-0.706044 0.289313 -0.367477 37 49 35
-0.235348 -0.598114 -0.356209 42 50 37
0.691054 -0.613104 -0.389199 47 55 42
0.334284 -0.688056 -0.418707 43 51 38
-0.034478 -0.376257 -0.398958 55 60 46
-0.544149 0.535155 -0.401192 36 43 35
-0.091441 -0.586122 -0.387469 43 51 38
0.655077 0.772002 -0.403860 35 47 37
-0.052466 -0.073453 -0.372918 60 73 55
-0.238346 -0.217360 -0.401193 55 68 51
0.346277 0.727031 -0.378741 36 48 38
-0.085445 0.097437 -0.389806 60 76 58
-0.661074 -0.685058 -0.394210 40 47 39
0.694052 0.319294 -0.385284 41 53 39
0.451209 -0.679062 -0.371158 44 52 39
-0.337282 0.187379 -0.388028 255 255 255
-0.775000 0.214362 -0.360734 38 50 36
-0.556141 0.721035 -0.371759 37 49 39
-0.628095 -0.541151 -0.373660 49 57 44
-0.025484 0.082447 -0.415827 74 89 70
0.172389 -0.610106 -0.387473 43 51 38
0.046470 0.235348 -0.397648 39 43 40
0.361267 -0.232350 -0.384834 52 65 48
0.577128 0.172389 -0.385043 40 47 39
0.523162 0.694052 -0.376447 33 45 35
-0.277321 0.103433 -0.395180 118 138 110
0.694052 -0.136412 -0.389447 50 62 46
0.688056 -0.643085 -0.363882 49 57 44
-0.004497 -0.550145 -0.376470 43 51 38
-0.466199 0.391248 -0.377196 40 50 36
-0.769004 0.316296 -0.366789 39 47 34
0.751015 -0.190377 -0.367507 49 57 44
0.649081 0.112427 -0.381912 43 49 42
-0.337282 0.457205 -0.370739 40 52 38
-0.586122 0.655077 -0.397155 33 45 35
-0.613104 -0.703046 -0.393964 41 49 36
-0.100435 0.055464 -0.377678 67 82 63
-0.508172 -0.595116 -0.390596 44 52 39
-0.109429 0.187379 -0.374842 31 38 30
0.283317 -0.442215 -0.375374 48 56 43
-0.388250 -0.568133 -0.350525 45 53 40
-0.652079 -0.703046 -0.375128 40 48 35
0.085445 0.619101 -0.364519 39 47 34
0.295309 -0.724033 -0.395860 41 48 40
-0.469197 0.121422 -0.359574 255 255 255
0.547147 0.376257 -0.359425 40 52 38
0.256335 0.649081 -0.385680 33 45 35
-0.601112 0.112427 -0.367280 201 191 186
0.313298 -0.499178 -0.383968 43 51 38
0.433220 0.583124 -0.365847 36 49 34
-0.535155 -0.607108 -0.385784 45 53 40
0.619101 -0.700048 -0.357343 46 54 41
-0.082447 0.697050 -0.410825 35 47 37
-0.766006 -0.055464 -0.379777 75 93 73
0.400242 0.190377 -0.375475 39 46 38
0.034478 -0.457205 -0.369277 49 56 43
-0.037476 0.646083 -0.385929 36 48 38
0.706044 0.031480 -0.399893 255 255 255
-0.655077 -0.268327 -0.379515 45 57 43
-0.298308 0.313298 -0.368024 33 45 31
0.034478 0.256335 -0.380983 40 47 39
-0.670068 -0.202369 -0.390977 59 72 55
0.646083 0.379255 -0.358760 38 50 36
0.277321 -0.373259 -0.373424 45 51 39
0.163395 -0.580126 -0.367962 47 55 42
-0.667070 0.415232 -0.366017 39 49 37
0.499178 0.676064 -0.374659 34 46 36
0.040474 -0.658075 -0.391910 41 49 36
0.100435 0.442215 -0.380251 37 49 35
0.319294 -0.775000 -0.398220 39 46 38
-0.124420 0.646083 -0.365692 35 47 37
0.631093 0.367263 -0.392497 39 51 37
0.043472 0.658075 -0.364988 37 49 38
0.373259 0.442215 -0.357642 40 50 37
0.664072 -0.037476 -0.368996 86 101 79
-0.604110 -0.367263 -0.369693 49 61 47
-0.631093 -0.271325 -0.391003 51 64 49
0.499178 0.070455 -0.371765 42 50 41
-0.121422 0.493182 -0.412282 37 49 35
0.313298 0.259333 -0.364588 43 54 40
-0.106431 -0.649081 -0.393942 45 53 40
0.052466 0.634091 -0.374229 36 48 34
0.364265 -0.733027 -0.388654 42 50 37
0.334284 -0.625097 -0.382145 45 53 40
-0.334284 -0.388250 -0.408212 48 56 43
-0.280319 -0.340280 -0.369944 49 57 44
-0.457205 -0.604110 -0.371852 41 48 38
0.469197 0.088443 -0.386224 39 51 41
-0.652079 -0.505174 -0.382682 44 56 42
-0.127418 0.598114 -0.385527 37 49 35
0.484188 0.106431 -0.367065 44 51 43
-0.193375 -0.157398 -0.401495 56 69 52
-0.427224 -0.445213 -0.371124 51 63 49
-0.694052 -0.043472 -0.364761 60 73 56
-0.394246 -0.010493 -0.366299 70 85 65
0.328288 0.199371 -0.368044 84 83 73
-0.487186 -0.427224 -0.376029 48 57 43
-0.034478 0.202369 -0.376247 42 49 41
0.487186 0.493182 -0.376557 36 47 33
0.358269 0.268327 -0.378296 43 51 38
0.490184 -0.541151 -0.372946 45 53 40
0.499178 -0.724033 -0.404206 64 72 57
0.586122 -0.307302 -0.351772 54 66 52
0.721035 -0.271325 -0.391378 50 62 48
-0.043472 0.532157 -0.419734 36 48 34
-0.214362 0.283317 -0.377845 43 51 38
-0.697050 -0.400242 -0.358260 49 62 45
0.766006 -0.280319 -0.381355 47 54 45
0.508172 -0.382253 -0.365592 49 61 47
-0.031480 0.721035 -0.408469 35 47 37
-0.235348 0.535155 -0.369038 35 46 32
-0.100435 0.406238 -0.388385 36 48 34
0.532157 0.352273 -0.383578 41 49 36
-0.610106 0.691054 -0.384629 31 43 33
0.142408 0.397244 -0.421306 43 51 38
-0.052466 -0.493182 -0.374810 43 51 38
0.730029 -0.649081 -0.381163 47 55 42
0.751015 -0.742021 -0.387676 50 60 46
-0.652079 0.358269 -0.365975 41 48 40
0.655077 -0.133414 -0.362519 70 83 65
-0.748017 0.055464 -0.402169 41 48 40
0.016489 -0.481190 -0.387207 42 48 36
0.166393 -0.442215 -0.367065 47 55 42
-0.403240 -0.334284 -0.390888 48 60 46
0.538153 -0.709043 -0.377583 37 45 33
-0.079449 -0.556141 -0.370586 44 52 39
-0.046470 -0.763008 -0.381957 39 47 34
0.643085 0.490184 -0.357365 38 46 36
0.130416 0.739023 -0.382262 34 46 36
0.550145 0.562137 -0.406063 33 45 35
-0.040474 0.508172 -0.357006 37 49 35
-0.622099 0.307302 -0.379128 38 50 36
-0.379255 -0.319294 -0.356866 51 59 46
-0.148404 0.166393 -0.367482 44 52 40
0.388250 0.274323 -0.394785 41 52 38
-0.271325 -0.556141 -0.381882 43 51 38
0.028482 0.760010 -0.387119 34 46 36
-0.361267 -0.493182 -0.408960 45 56 42
-0.673066 0.535155 -0.393212 33 45 35
-0.079449 -0.016489 -0.370144 62 77 58
-0.244342 0.031480 -0.383798 80 93 75
-0.523162 0.709043 -0.376945 35 47 37
0.250338 -0.553143 -0.376070 46 54 41
-0.346277 -0.157398 -0.411771 53 67 50
-0.277321 -0.088443 -0.373268 55 68 51
-0.571132 -0.121422 -0.386608 60 73 56
0.076451 0.151402 -0.367539 255 255 255
0.253337 0.562137 -0.405058 33 45 35
0.508172 0.532157 -0.406032 35 47 33
0.325290 0.727031 -0.383724 35 47 37
0.283317 0.553143 -0.390198 35 47 33
-0.703046 -0.454207 -0.358128 44 56 42
0.418230 0.493182 -0.408206 36 48 37
-0.589120 -0.643085 -0.379418 44 52 39
0.739023 0.310300 -0.392616 40 49 36
-0.076451 0.715039 -0.384235 35 47 37
-0.268327 -0.649081 -0.367898 40 47 38
0.028482 -0.670068 -0.378914 42 50 37
-0.607108 0.616103 -0.371546 40 45 39
0.115426 0.520164 -0.399076 39 46 33
-0.193375 0.757012 -0.362485 34 46 36
0.037476 -0.469197 -0.409941 43 51 38
-0.058462 -0.658075 -0.379551 42 50 37
-0.562137 0.556141 -0.387834 37 44 36
-0.184381 0.370261 -0.386161 38 50 36
0.055464 -0.496180 -0.376923 46 52 40
0.589120 -0.709043 -0.395136 45 53 40
-0.703046 0.154400 -0.392769 38 45 37
-0.538153 0.175387 -0.367458 255 255 255
-0.595116 0.097437 -0.379653 253 252 251
0.544149 0.382253 -0.343700 41 53 39
0.217360 -0.550145 -0.368370 47 55 42
0.037476 -0.004497 -0.389505 74 87 69
-0.670068 0.352273 -0.375851 38 50 36
-0.262331 0.652079 -0.367362 34 46 36
-0.502176 0.208366 -0.384864 41 48 41
0.670068 -0.277321 -0.370634 57 70 53
0.445213 -0.052466 -0.401624 63 72 56
-0.496180 0.148404 -0.394174 255 255 255
-0.511170 0.025484 -0.378198 50 64 49
0.037476 0.733027 -0.382451 34 46 36
0.529159 0.022485 -0.381830 68 87 67
0.421228 -0.280319 -0.353207 55 68 51
-0.208366 -0.361267 -0.361616 46 54 41
-0.667070 -0.733027 -0.384668 35 45 34
-0.070455 0.634091 -0.382203 35 47 33
-0.028482 0.466199 -0.380388 37 49 35
0.607108 -0.229352 -0.366770 58 71 54
0.046470 -0.292311 -0.384551 63 71 56
-0.526161 0.466199 -0.388028 38 46 33
-0.088443 -0.475193 -0.395760 45 53 40
0.733027 -0.349275 -0.364888 54 67 50
0.772002 0.172389 -0.389388 42 50 37
-0.472195 -0.547147 -0.378447 43 56 39
-0.124420 -0.487186 -0.386246 44 52 39
-0.490184 -0.352273 -0.390168 48 60 46
0.541151 0.250338 -0.392349 41 53 39
0.379255 -0.307302 -0.369275 49 61 47
-0.244342 -0.121422 -0.382296 59 72 54
-0.412234 -0.397244 -0.377431 48 57 44
0.268327 -0.493182 -0.394850 46 54 41
0.619101 0.082447 -0.366220 255 255 255
-0.394246 -0.376257 -0.389893 47 55 42
-0.295309 0.418230 -0.392478 41 53 39
-0.064458 -0.664072 -0.367461 41 49 36
-0.727031 -0.556141 -0.398099 41 52 38
-0.157398 0.034478 -0.370702 67 82 63
0.748017 -0.232350 -0.384657 58 71 54
0.154400 -0.514168 -0.384810 46 54 41
0.334284 -0.622099 -0.373242 45 53 40
0.037476 0.172389 -0.386772 255 255 255
-0.514168 0.661074 -0.356392 37 49 35
0.334284 -0.487186 -0.413236 45 53 40
-0.316296 0.178385 -0.422063 255 255 255
0.436219 0.445213 -0.378217 40 52 38
-0.217360 0.235348 -0.378017 43 51 38
-0.211364 0.202369 -0.416487 39 46 38
-0.514168 0.496180 -0.370895 36 48 38
-0.040474 0.265329 -0.383628 41 49 36
-0.706044 0.271325 -0.388103 37 49 35
0.646083 -0.673066 -0.367891 46 54 41
-0.460203 -0.661073 -0.352907 42 50 37
-0.088443 0.682060 -0.400237 35 47 37
-0.367263 -0.214362 -0.379937 55 68 51
-0.388250 0.265329 -0.390880 41 48 40
-0.748017 -0.571132 -0.398773 48 60 47
0.475193 0.757012 -0.368611 37 49 39
-0.346277 0.523162 -0.387851 35 47 37
-0.757012 0.481190 -0.384905 36 48 38
-0.682060 0.004497 -0.377673 58 72 55
-0.361267 -0.583124 -0.366585 45 53 38
-0.352273 -0.394246 -0.351421 50 58 45
-0.502176 0.007495 -0.355918 88 101 81
-0.739023 0.430222 -0.401448 37 49 35
0.367263 0.691054 -0.399927 35 47 34
0.511170 -0.295309 -0.375134 56 69 52
-0.370261 0.151402 -0.361595 255 255 255
-0.226354 0.541151 -0.373277 34 46 32
0.565135 -0.373259 -0.386960 51 63 49
-0.166393 0.565135 -0.351554 37 45 31
-0.352273 0.262331 -0.373559 34 41 34
-0.493182 0.286315 -0.386623 43 50 42
0.028482 0.745019 -0.360717 34 45 37
0.451209 0.067456 -0.390326 50 62 48
-0.001499 0.610106 -0.379433 36 48 34
-0.007495 -0.364265 -0.378890 46 52 40
-0.544149 0.562137 -0.375610 36 43 35
0.571132 -0.331286 -0.393657 51 63 48
0.706044 -0.508172 -0.404866 53 61 47
0.730029 0.487186 -0.387777 38 50 36
0.463201 -0.508172 -0.408086 46 54 41
-0.322292 0.430222 -0.370701 36 48 34
0.748017 -0.577128 -0.395259 48 56 43
-0.217360 0.064458 -0.373038 76 89 69
0.226354 0.538153 -0.389671 37 44 34
-0.430222 0.364265 -0.396715 42 51 38
-0.565135 0.307302 -0.395382 41 49 36
0.013491 0.700048 -0.388543 35 47 36
-0.712041 -0.418230 -0.379398 49 61 47
0.355271 -0.349275 -0.382091 50 59 46
0.610106 0.031480 -0.381272 255 255 255
-0.211364 0.262331 -0.380318 41 49 36
-0.238346 -0.586122 -0.398738 43 51 38
-0.658075 0.244342 -0.376106 43 51 38
-0.064458 -0.676064 -0.374784 44 52 39
-0.529159 0.556141 -0.366444 33 45 35
0.124420 -0.529159 -0.381927 47 55 42
-0.409236 0.688056 -0.395304 32 44 34
-0.334284 0.457205 -0.397282 40 52 38
0.541151 0.607108 -0.380160 31 43 33
-0.130416 0.331286 -0.358896 41 48 40
-0.619101 -0.361267 -0.386703 50 62 48
-0.472195 0.175387 -0.392806 255 255 255
0.457205 0.316296 -0.375986 40 52 38
-0.763008 0.340280 -0.360958 40 48 35
-0.286315 0.622099 -0.391419 35 47 33
-0.667070 0.703046 -0.385703 35 45 36
0.133414 0.355271 -0.359253 42 53 39
-0.307302 -0.208366 -0.390019 57 70 53
0.505174 0.676064 -0.363662 33 45 35
-0.403240 -0.202369 -0.374406 53 68 51
0.685058 -0.535155 -0.379850 50 59 46
0.535155 -0.667070 -0.380586 41 48 40
-0.706044 0.721035 -0.395564 37 43 35
0.049468 -0.553143 -0.364028 46 52 40
-0.418230 -0.115426 -0.377175 61 76 57
-0.238346 -0.427224 -0.356240 46 54 41
0.544149 -0.112427 -0.400152 57 70 53
0.475193 -0.175387 -0.392864 50 63 46
0.367263 -0.400242 -0.414111 47 56 42
0.403240 -0.307302 -0.369491 51 64 47
-0.718037 -0.406238 -0.363522 50 62 48
0.748017 0.295309 -0.387623 42 54 40
0.670068 0.088443 -0.374465 76 69 72
0.043472 -0.544149 -0.378376 45 51 39
-0.034478 0.301306 -0.372296 40 48 35
-0.256335 -0.382253 -0.383352 47 55 42
0.640087 -0.661073 -0.388247 46 54 41
-0.703046 -0.379255 -0.375035 49 62 45
-0.532157 -0.694052 -0.382301 43 51 38
0.190377 0.766006 -0.368672 33 45 35
-0.025484 -0.631093 -0.384139 45 53 40
-0.400242 0.598114 -0.388420 34 44 34
0.607108 -0.469197 -0.389342 50 58 45
0.412234 -0.586122 -0.377666 46 54 41
-0.121422 0.313298 -0.363439 40 52 38
-0.199371 -0.259333 -0.390254 50 63 46
-0.676064 0.304304 -0.382213 38 50 36
-0.418230 0.559139 -0.398381 29 41 31
-0.211364 0.307302 -0.398324 42 48 40
-0.766006 -0.715039 -0.388166 42 54 40
-0.475193 0.385251 -0.386081 38 50 40
0.493182 0.166393 -0.388075 40 48 37
0.685058 -0.472195 -0.374169 51 59 46
-0.130416 -0.505174 -0.378094 44 52 39
-0.139410 0.049468 -0.380675 58 72 55
0.076451 0.085445 -0.362572 132 148 121
0.055464 -0.598114 -0.388138 43 49 37
-0.070455 -0.646083 -0.377091 43 51 38
0.091441 0.322292 -0.364403 41 53 39
-0.043472 -0.142408 -0.406113 50 63 46
0.490184 -0.688056 -0.398227 47 54 43
-0.610106 -0.373259 -0.372774 49 61 47
0.697050 0.403240 -0.402409 38 50 36
-0.718037 0.451209 -0.396425 37 49 35
0.469197 0.454207 -0.408161 38 50 36
-0.469197 -0.535155 -0.376461 42 53 45
0.085445 0.637089 -0.387579 38 50 36
0.400242 -0.727031 -0.351127 52 60 47
-0.535155 0.097437 -0.372825 140 153 164
-0.073453 0.532157 -0.380648 36 48 34
-0.574130 -0.709043 -0.357660 43 51 39
-0.256335 -0.235348 -0.385168 52 65 48
-0.460203 0.133414 -0.354989 255 255 255
-0.331286 0.430222 -0.385978 36 48 34
0.760010 -0.214362 -0.391475 46 56 42
0.178385 -0.337282 -0.398275 46 52 40
-0.079449 0.388250 -0.374435 36 48 34
0.517166 -0.274323 -0.387721 57 70 53
-0.310300 0.337282 -0.337859 44 52 39
0.736025 0.526161 -0.392788 36 48 34
0.325290 0.226354 -0.381328 39 47 35
0.292311 -0.580126 -0.388961 44 52 39
0.685058 -0.586122 -0.374958 48 56 43
0.622099 0.118424 -0.377739 43 49 43
0.412234 0.394246 -0.387697 43 51 38
0.046470 0.085445 -0.362915 107 124 100
-0.643085 -0.301306 -0.353802 47 59 45
0.541151 0.004497 -0.400262 91 105 79
-0.313298 -0.496180 -0.356893 44 52 39
-0.715039 0.085445 -0.383872 41 48 40
-0.697050 -0.313298 -0.371256 51 63 49
0.304304 0.628095 -0.390343 33 45 35
0.634091 -0.535155 -0.387697 51 59 46
-0.466199 -0.517166 -0.378711 43 55 39
0.421228 -0.352273 -0.385354 53 65 52
-0.616103 -0.229352 -0.384299 55 67 51
-0.277321 0.742021 -0.386045 33 45 35
-0.367263 -0.136412 -0.381987 52 66 49
0.370261 0.349275 -0.384016 43 51 38
0.406238 -0.124420 -0.369073 68 82 66
-0.223356 0.382253 -0.383483 43 50 41
-0.577128 -0.076451 -0.362362 67 81 65
0.682060 -0.685058 -0.349658 46 54 41
-0.685058 0.457205 -0.392475 36 48 34
0.649081 -0.130416 -0.374566 69 82 64
-0.355271 0.115426 -0.397171 49 55 47
-0.397244 0.076451 -0.375504 106 128 102
-0.661074 0.106431 -0.376259 38 45 37
-0.442215 -0.559139 -0.379833 43 51 38
0.622099 -0.196373 -0.346984 62 75 58
-0.109429 0.694052 -0.391656 35 47 35
-0.739023 -0.367263 -0.385195 47 59 45
-0.682060 -0.052466 -0.379225 61 76 57
-0.100435 0.382253 -0.397444 36 48 34
0.277321 0.562137 -0.407043 35 47 33
-0.568133 -0.592118 -0.366452 45 53 40
-0.133414 0.355271 -0.382836 37 49 35
0.091441 0.322292 -0.377348 41 53 39
0.421228 0.724033 -0.388175 35 47 37
-0.628095 0.412234 -0.409061 16 16 14
-0.436219 0.583124 -0.408668 35 47 37
0.577128 0.295309 -0.372938 40 52 38
0.610106 -0.502176 -0.387763 50 59 46
-0.205368 0.370261 -0.370541 41 48 39
-0.142408 0.532157 -0.379961 35 47 37
-0.301306 0.370261 -0.376375 44 52 39
-0.697050 0.742021 -0.372787 35 46 36
0.130416 0.385251 -0.383875 40 52 38
0.094439 0.292311 -0.384890 44 52 39
-0.391248 -0.463201 -0.378361 52 59 47
-0.742021 0.523162 -0.412961 36 48 35
0.037476 0.742021 -0.364652 34 46 36
-0.313298 -0.304304 -0.377654 58 71 55
-0.358269 0.589120 -0.352308 35 47 35
0.142408 -0.619101 -0.365026 43 51 38
0.307302 0.169391 -0.386664 255 255 255
0.400242 0.772002 -0.373960 38 50 40
-0.409236 -0.535155 -0.397143 43 55 41
-0.421228 0.016489 -0.378028 103 119 95
-0.346277 0.223356 -0.385221 43 48 42
-0.601112 0.472195 -0.392192 40 52 42
