ply
format ascii 1.0
element vertex 1254
property float x
property float y
property float z
property uchar red
property uchar green
property uchar blue
end_header
-0.277321 -0.577128 -0.362306 41 49 36
-0.118424 0.499178 -0.381941 36 48 34
0.553143 -0.541151 -0.358228 53 66 48
0.115426 0.574130 -0.386813 36 48 35
0.301306 -0.529159 -0.397975 44 52 39
-0.520164 0.331286 -0.386417 42 54 40
-0.661074 0.484188 -0.377734 35 44 36
-0.745019 0.604110 -0.375017 35 47 37
0.157398 0.703046 -0.389454 34 46 33
0.733027 0.631093 -0.394457 36 49 33
-0.757012 -0.358269 -0.376975 44 56 42
-0.001499 -0.346277 -0.379747 41 47 36
-0.004497 -0.124420 -0.366070 57 70 53
-0.079449 -0.628095 -0.378386 43 51 38
-0.349275 0.430222 -0.354418 37 49 35
0.289313 -0.511170 -0.387739 44 52 39
-0.550145 0.409236 -0.363972 34 41 33
0.286315 0.526161 -0.390816 36 48 34
-0.454207 0.316296 -0.394211 44 52 39
-0.220358 -0.589120 -0.402788 41 49 36
-0.331286 0.205368 -0.368520 255 255 255
0.427224 0.442215 -0.374382 38 50 36
0.433220 -0.763008 -0.373696 46 54 41
-0.184381 -0.544149 -0.381965 53 61 48
0.271325 0.277321 -0.372248 38 50 36
0.439217 -0.580126 -0.379202 47 55 42
-0.079449 -0.679062 -0.378154 43 51 38
0.346277 -0.721035 -0.376703 46 54 41
-0.397244 0.337282 -0.395061 43 50 42
0.772002 -0.214362 -0.383252 44 56 42
-0.061460 0.307302 -0.374889 39 48 38
0.130416 0.184381 -0.369741 255 255 255
-0.013491 -0.118424 -0.382209 57 70 53
0.253337 0.376257 -0.360889 42 50 37
-0.430222 0.370261 -0.401281 42 50 37
-0.007495 -0.085445 -0.363646 62 75 58
-0.541151 0.175387 -0.388959 255 255 255
-0.067456 0.460203 -0.397200 36 48 34
0.430222 0.193375 -0.365441 39 46 38
-0.421228 -0.562137 -0.394154 43 51 38
-0.379255 0.118424 -0.387101 75 73 74
0.238346 -0.772002 -0.370446 36 43 35
-0.622099 0.394246 -0.370458 40 52 38
-0.661074 -0.457205 -0.386341 49 62 46
0.748017 0.226354 -0.385585 36 48 34
0.706044 0.106431 -0.362578 39 44 38
-0.046470 0.187379 -0.370251 28 34 27
-0.742021 0.619101 -0.374916 35 47 37
-0.766006 0.601112 -0.366588 34 46 36
-0.241344 0.766006 -0.355680 34 46 34
0.187379 -0.508172 -0.387843 47 53 41
0.664072 -0.526161 -0.401485 52 59 46
-0.727031 0.700048 -0.407639 34 46 35
0.568133 -0.604110 -0.353060 47 55 42
-0.274323 -0.589120 -0.411046 42 52 38
0.343278 0.415232 -0.361365 42 48 36
-0.226354 -0.559139 -0.377144 44 52 39
0.355271 0.589120 -0.394313 34 46 34
-0.337282 0.760010 -0.390744 33 45 35
-0.769004 -0.424226 -0.401379 49 62 45
-0.265329 0.265329 -0.364511 40 47 39
-0.652079 -0.334284 -0.418117 47 55 42
-0.550145 -0.709043 -0.350831 43 51 38
0.448211 -0.169391 -0.376450 58 70 57
0.559139 -0.673066 -0.364742 44 52 39
-0.760010 0.577128 -0.377472 35 47 37
0.253337 0.412234 -0.370394 38 50 36
-0.571132 0.055464 -0.385808 100 115 92
-0.322292 0.157398 -0.378026 255 255 255
-0.775000 0.442215 -0.379880 36 48 34
0.466199 0.082447 -0.385406 41 48 39
-0.109429 0.325290 -0.371759 39 49 38
-0.259333 -0.262331 -0.409421 52 65 48
-0.646083 -0.652079 -0.394405 44 52 39
-0.754014 -0.475193 -0.385873 44 52 39
0.067457 0.319294 -0.380924 43 53 39
-0.301306 -0.205368 -0.373469 56 69 52
0.508172 0.157398 -0.382398 42 49 40
0.547147 -0.202369 -0.371710 71 83 67
0.529159 -0.145406 -0.400669 52 65 48
0.421228 -0.193375 -0.380320 56 70 53
-0.481190 0.133414 -0.378852 255 255 255
-0.109429 -0.157398 -0.373198 56 69 52
-0.526161 -0.427224 -0.359810 44 53 40
-0.073453 0.451209 -0.395468 36 48 34
-0.379255 -0.247340 -0.392305 53 66 50
0.667070 0.358269 -0.394859 38 50 36
-0.262331 0.097437 -0.379708 108 126 101
-0.628095 0.709043 -0.413106 30 42 32
0.199371 0.661074 -0.365430 36 44 36
-0.643085 0.694052 -0.402370 31 39 30
-0.670068 0.070455 -0.365796 42 51 42
0.298308 0.388250 -0.368813 41 49 36
0.388250 -0.526161 -0.357482 46 54 41
0.013491 -0.331286 -0.384644 39 44 37
-0.298308 0.172389 -0.374526 255 255 255
0.547147 0.370261 -0.379105 40 52 38
-0.457205 0.067456 -0.374585 132 151 119
-0.223356 -0.004497 -0.352276 70 83 65
0.679062 -0.082447 -0.360086 57 69 54
0.700048 -0.409236 -0.398515 51 59 46
0.505174 -0.010493 -0.352787 61 74 56
-0.337282 -0.718037 -0.382512 40 48 35
0.724033 0.220358 -0.371740 38 46 33
-0.658075 -0.235348 -0.375474 58 72 55
0.253337 -0.766006 -0.402381 39 46 38
0.481190 -0.625097 -0.371194 43 51 38
0.520164 0.313298 -0.367028 44 52 39
0.727031 -0.547147 -0.381153 52 60 47
0.028482 0.727031 -0.364465 34 47 31
-0.061460 -0.187379 -0.370210 52 65 48
0.460203 -0.415232 -0.391786 51 59 46
0.220358 0.751015 -0.382803 34 46 36
-0.715039 0.271325 -0.393896 37 49 35
0.529159 -0.538153 -0.376135 44 52 39
-0.235348 -0.217360 -0.373248 54 67 50
-0.592118 -0.364265 -0.399794 48 60 46
-0.373259 0.580126 -0.400244 34 47 37
0.409236 0.424226 -0.378221 37 49 35
-0.496180 -0.289313 -0.378157 51 63 47
-0.082447 -0.172389 -0.377048 57 70 53
0.148404 -0.550145 -0.376209 47 55 42
-0.115426 0.517166 -0.343402 37 49 35
-0.769004 -0.493182 -0.386207 49 62 45
-0.673066 0.541151 -0.382661 34 46 36
0.751015 -0.544149 -0.370607 54 65 51
-0.583124 0.424226 -0.379767 36 43 35
0.388250 -0.448211 -0.379740 46 56 45
0.619101 0.616103 -0.380478 34 46 36
-0.598114 -0.748017 -0.389777 41 48 40
0.016489 -0.349275 -0.373844 44 50 38
0.547147 0.040474 -0.401095 33 34 36
-0.628095 -0.256335 -0.391553 48 60 46
-0.097437 -0.238346 -0.351739 58 70 54
0.223356 -0.250338 -0.393287 56 64 51
-0.733027 -0.544149 -0.370757 43 51 38
0.754013 0.559139 -0.368971 37 49 39
0.193375 -0.511170 -0.380007 46 54 41
0.538153 0.169391 -0.373546 41 53 39
0.499178 0.487186 -0.397672 37 47 34
0.010493 -0.508172 -0.375447 44 50 38
-0.472195 -0.280319 -0.388429 51 63 47
0.229352 0.742021 -0.379319 34 46 36
-0.640087 0.139410 -0.400274 34 39 32
-0.478191 -0.271325 -0.373845 49 61 47
0.592118 0.568133 -0.407773 23 26 20
0.274323 0.268327 -0.391119 40 52 38
-0.397244 0.775000 -0.356838 37 49 39
0.514168 0.667070 -0.374890 33 45 35
-0.481190 -0.292311 -0.400949 51 63 49
0.460203 -0.373259 -0.361782 52 60 47
0.676064 -0.175387 -0.360757 63 76 58
0.718037 -0.196373 -0.367503 64 72 57
-0.076451 -0.742021 -0.378878 39 46 38
-0.754014 -0.373259 -0.375372 48 60 46
-0.001499 0.280319 -0.385183 43 49 42
0.346277 0.157398 -0.383973 255 255 255
-0.646083 -0.382253 -0.394665 49 62 47
0.175387 -0.415232 -0.385964 50 58 45
-0.082447 -0.730029 -0.384926 43 51 38
0.133414 0.652079 -0.372788 34 46 36
-0.661074 0.211364 -0.382821 38 45 37
0.526161 -0.757012 -0.358246 44 52 39
-0.505174 -0.244342 -0.376844 50 62 47
-0.220358 -0.526161 -0.369373 45 53 40
-0.088443 0.598114 -0.350000 36 48 38
-0.130416 -0.670068 -0.364895 41 49 36
0.190377 -0.316296 -0.365974 46 54 41
-0.583124 -0.292311 -0.391555 72 85 67
-0.301306 -0.334284 -0.375179 46 54 41
-0.502176 -0.412234 -0.393180 45 57 43
-0.508172 0.301306 -0.390360 43 50 42
0.427224 -0.673066 -0.370131 43 51 38
-0.751015 -0.352273 -0.372564 45 57 43
0.457205 0.493182 -0.414567 38 46 34
-0.313298 0.145406 -0.390287 255 255 255
0.517166 -0.256335 -0.396461 55 68 51
0.547147 -0.736025 -0.404915 38 45 37
-0.661074 -0.541151 -0.367396 44 56 42
0.448211 -0.124420 -0.343679 49 61 48
0.559139 0.655077 -0.369905 32 40 32
-0.322292 0.205368 -0.367911 255 255 255
-0.532157 -0.412234 -0.384602 47 59 45
0.748017 0.733027 -0.373155 32 47 36
0.208366 -0.535155 -0.393470 47 55 42
-0.232350 -0.073453 -0.396920 63 76 59
-0.379255 0.415232 -0.402544 41 53 39
0.136412 0.637089 -0.385570 37 43 33
-0.181383 -0.757012 -0.373993 39 46 37
-0.361267 -0.148404 -0.386405 50 62 48
-0.445213 0.322292 -0.367671 40 52 38
-0.094439 0.370261 -0.373419 36 48 34
-0.496180 0.430222 -0.372044 43 50 42
-0.256335 -0.733027 -0.373108 45 53 40
0.592118 0.658075 -0.389076 27 34 26
-0.139410 -0.442215 -0.382798 44 52 39
-0.385251 0.733027 -0.364950 39 51 39
-0.250338 0.034478 -0.365684 81 95 76
-0.007495 0.127418 -0.409483 69 84 65
-0.763008 -0.385251 -0.343958 49 61 47
0.511170 -0.142408 -0.373926 57 70 54
0.079449 0.322292 -0.381030 44 52 39
0.499178 0.070455 -0.362930 42 50 41
0.739023 0.400242 -0.365838 41 53 39
-0.022485 0.568133 -0.385943 37 49 35
-0.598114 0.184381 -0.400212 41 46 40
0.505174 0.427224 -0.363261 37 49 35
-0.397244 0.763008 -0.377846 37 49 39
-0.457205 -0.694052 -0.371145 43 51 38
0.640087 0.187379 -0.384027 44 53 40
0.421228 -0.493182 -0.367017 50 58 45
-0.619101 -0.418230 -0.371791 49 61 46
0.553143 0.292311 -0.364921 40 52 38
-0.280319 -0.568133 -0.373803 43 51 38
0.151402 -0.295309 -0.392330 51 59 46
0.655077 -0.640087 -0.398717 52 64 49
0.367263 0.727031 -0.360010 36 48 38
-0.766006 0.616103 -0.375231 34 46 36
-0.715039 -0.244342 -0.382089 46 58 43
-0.304304 0.721035 -0.376281 32 44 34
0.001499 -0.538153 -0.361528 45 53 40
-0.232350 -0.025484 -0.381942 66 80 62
-0.736025 0.547147 -0.372609 36 48 34
-0.337282 0.646083 -0.392413 36 48 34
-0.337282 0.472195 -0.381879 38 50 36
-0.514168 0.340280 -0.375147 41 53 39
0.652079 -0.556141 -0.376365 49 60 46
-0.235348 -0.022485 -0.387619 68 81 63
0.688056 0.730029 -0.357457 29 41 31
0.451209 0.517166 -0.379477 35 47 33
-0.343279 -0.565135 -0.370655 44 56 42
-0.466199 0.562137 -0.375982 35 47 33
-0.718037 -0.280319 -0.363481 49 61 47
-0.295309 0.103433 -0.354644 103 118 94
-0.589120 -0.238346 -0.400549 63 76 60
-0.712041 -0.739023 -0.368126 43 51 38
0.547147 -0.160397 -0.407829 70 83 65
0.301306 0.760010 -0.395714 36 48 38
0.028482 0.175387 -0.384325 59 59 66
-0.160397 0.337282 -0.374317 41 49 36
-0.004497 0.262331 -0.366741 41 48 40
0.001499 -0.361267 -0.370812 45 52 40
-0.295309 -0.727031 -0.378115 40 48 39
0.040474 0.388250 -0.369165 37 49 35
0.667070 0.304304 -0.367834 44 52 39
0.694052 -0.736025 -0.370907 45 53 40
0.058462 -0.619101 -0.370421 41 49 36
0.649081 -0.730029 -0.340120 40 48 35
0.766006 -0.355271 -0.398205 49 57 44
-0.541151 -0.343278 -0.390443 45 57 43
0.652079 0.463201 -0.398792 27 36 25
0.640087 0.337282 -0.377604 40 52 38
0.355271 0.541151 -0.369999 38 49 35
-0.394246 0.403240 -0.383627 34 46 34
-0.268327 0.730029 -0.388985 31 43 33
0.388250 0.589120 -0.387380 35 47 34
-0.775000 -0.490184 -0.350121 49 62 45
-0.616103 0.283317 -0.377909 39 51 37
0.697050 0.076451 -0.394496 155 147 143
0.208366 0.361267 -0.352965 43 51 38
-0.595116 0.034478 -0.373019 80 93 75
-0.766006 -0.418230 -0.407291 49 62 45
0.598114 0.196373 -0.372926 42 54 40
-0.574130 -0.148404 -0.362468 61 75 58
0.055464 0.256335 -0.397210 40 47 39
-0.157398 0.601112 -0.394894 33 45 35
-0.124420 0.007495 -0.375587 64 79 60
0.670068 -0.214362 -0.391107 59 72 55
0.481190 0.118424 -0.393672 41 49 36
0.610106 0.715039 -0.381899 31 43 33
0.634091 0.388250 -0.365670 37 49 35
0.235348 -0.616103 -0.375663 44 52 39
0.394246 -0.691054 -0.373983 43 51 38
-0.622099 0.451209 -0.379613 34 41 33
-0.556141 -0.622099 -0.384163 45 53 40
-0.763008 0.148404 -0.375980 39 46 38
0.376257 -0.598114 -0.388539 43 51 38
-0.481190 0.019487 -0.391688 70 83 66
-0.433220 0.616103 -0.377887 34 46 32
0.169391 -0.433220 -0.400935 47 55 42
-0.076451 -0.181383 -0.376737 54 67 50
0.010493 0.454207 -0.386450 37 49 35
-0.169391 0.676064 -0.408642 32 44 34
0.526161 -0.379255 -0.382618 49 61 47
0.469197 0.676064 -0.383331 34 46 36
0.574130 -0.607108 -0.384553 46 54 41
-0.580126 -0.397244 -0.385474 47 59 45
0.346277 -0.496180 -0.403409 45 53 40
0.133414 -0.580126 -0.369514 45 53 40
-0.721035 -0.145406 -0.377535 59 73 56
0.592118 0.559139 -0.389638 55 54 51
-0.235348 -0.706044 -0.379108 39 47 34
-0.052466 -0.589120 -0.365834 44 52 39
0.448211 0.181383 -0.387743 41 48 40
-0.352273 0.184381 -0.370163 255 255 255
-0.283317 -0.751015 -0.369911 43 51 38
0.463201 -0.331286 -0.384742 52 65 48
-0.619101 0.181383 -0.390154 39 45 38
0.106431 0.601112 -0.408689 36 48 34
-0.451209 0.505174 -0.380560 36 48 34
0.457205 -0.313298 -0.384909 52 65 48
0.118424 0.625097 -0.389278 37 49 35
-0.610106 0.577128 -0.360180 20 21 17
-0.133414 -0.775000 -0.372005 39 47 34
-0.493182 -0.673066 -0.352325 45 53 40
-0.343279 0.403240 -0.390199 35 47 33
0.256335 -0.487186 -0.379034 47 55 42
0.022485 -0.325290 -0.369143 39 46 34
-0.769004 0.430222 -0.400591 36 48 34
-0.415232 -0.307302 -0.361260 44 56 42
0.496180 0.049468 -0.403609 55 67 53
-0.100435 -0.202369 -0.388613 52 65 48
0.544149 -0.283317 -0.382997 56 68 54
0.070455 0.421228 -0.389422 37 49 35
-0.712041 0.457205 -0.406319 37 49 36
-0.631093 -0.451209 -0.379750 46 58 43
0.643085 -0.031480 -0.403910 90 104 85
0.469197 -0.568133 -0.386648 47 55 42
-0.337282 -0.127418 -0.378927 53 67 50
0.097437 -0.754013 -0.361403 40 48 35
-0.001499 0.508172 -0.374357 37 49 35
-0.613104 -0.040474 -0.358054 64 77 60
-0.358269 0.496180 -0.394112 38 50 36
0.454207 0.727031 -0.368350 36 48 38
0.298308 -0.472195 -0.364079 46 54 41
0.754013 -0.028482 -0.379747 255 255 255
0.469197 -0.292311 -0.411624 54 67 50
0.421228 0.286315 -0.377557 40 52 38
-0.052466 -0.211364 -0.391742 51 64 47
-0.523162 0.343279 -0.380899 41 53 39
-0.571132 -0.511170 -0.361827 46 58 44
0.076451 -0.364265 -0.376542 45 51 39
-0.340280 0.349275 -0.393992 37 49 35
-0.559139 0.394246 -0.381487 40 48 39
-0.202369 0.040474 -0.395267 73 87 69
-0.265329 0.100435 -0.395742 112 130 103
0.124420 -0.292311 -0.407904 56 63 46
-0.178385 0.349275 -0.392629 41 49 36
0.142408 0.559139 -0.365109 36 45 32
0.601112 0.403240 -0.406497 37 49 35
0.691054 0.340280 -0.370906 40 51 37
0.583124 0.670068 -0.367359 32 41 32
-0.532157 -0.040474 -0.370050 55 69 52
0.304304 0.397244 -0.367843 41 49 36
0.112427 -0.394246 -0.370648 45 51 39
-0.064458 0.322292 -0.369697 37 49 35
-0.511170 -0.484188 -0.398899 45 58 41
0.292311 0.739023 -0.402476 35 47 37
-0.232350 -0.109429 -0.383240 58 71 54
-0.391248 -0.031480 -0.396577 63 75 60
0.358269 -0.535155 -0.373953 44 52 39
0.664072 0.262331 -0.382457 41 53 39
-0.697050 0.343279 -0.364857 37 49 35
0.712041 0.676064 -0.405610 32 45 35
0.007495 0.406238 -0.417237 37 49 35
0.553143 0.265329 -0.377233 41 53 39
-0.055464 -0.760010 -0.389767 36 46 35
-0.538153 0.031480 -0.362567 98 113 90
0.637089 0.187379 -0.358281 44 53 40
-0.490184 0.394246 -0.374008 40 48 35
0.643085 0.442215 -0.359125 34 44 35
0.046470 0.292311 -0.375606 44 52 39
-0.595116 -0.469197 -0.392763 43 55 41
0.571132 0.313298 -0.360988 40 52 38
0.400242 0.613104 -0.378586 33 45 35
0.601112 0.040474 -0.415147 255 255 255
0.316296 -0.538153 -0.366523 43 51 38
-0.508172 0.601112 -0.375484 36 48 34
0.424226 -0.628095 -0.368495 45 53 40
-0.631093 -0.181383 -0.389885 57 72 54
-0.019487 -0.697050 -0.398931 41 49 36
0.238346 0.709043 -0.372916 34 46 36
-0.655077 0.442215 -0.382307 36 49 35
0.460203 -0.712041 -0.371895 41 49 36
-0.322292 0.022485 -0.427942 70 83 65
0.316296 0.460203 -0.396336 38 50 36
-0.715039 -0.685058 -0.393237 37 45 32
-0.355271 -0.136412 -0.370850 47 60 45
-0.685058 0.457205 -0.351437 36 48 34
0.514168 -0.094439 -0.355007 74 87 67
-0.178385 -0.538153 -0.396627 50 58 45
0.016489 -0.472195 -0.403163 43 49 37
-0.274323 -0.133414 -0.397405 59 73 56
0.421228 -0.769004 -0.349881 43 51 38
-0.016489 -0.382253 -0.361037 42 48 36
0.745019 -0.712041 -0.377694 44 52 39
0.640087 0.154400 -0.393833 43 50 42
0.670068 0.721035 -0.384442 30 42 32
0.400242 -0.277321 -0.412844 54 67 50
-0.145406 0.295309 -0.396151 41 53 39
-0.373259 -0.508172 -0.371776 44 52 39
-0.691054 0.202369 -0.387995 38 45 36
-0.682060 0.304304 -0.372592 38 50 36
-0.049468 0.283317 -0.384447 37 49 35
-0.610106 0.283317 -0.362986 38 50 36
-0.262331 0.193375 -0.379082 65 69 64
-0.202369 -0.733027 -0.401996 42 50 37
0.097437 -0.751015 -0.410837 40 48 35
-0.124420 -0.106431 -0.403579 59 72 54
0.610106 -0.706044 -0.381620 47 55 42
0.682060 -0.760010 -0.391331 45 53 40
0.568133 0.427224 -0.368452 37 49 35
-0.361267 0.274323 -0.419148 45 53 40
-0.640087 -0.328288 -0.362816 44 56 42
-0.613104 0.709043 -0.381397 35 45 36
-0.403240 -0.772002 -0.409753 41 49 36
-0.169391 0.442215 -0.392331 36 49 34
0.313298 -0.511170 -0.390799 43 51 38
-0.394246 -0.547147 -0.349971 44 52 39
0.385251 0.436219 -0.388682 41 52 38
-0.622099 0.214362 -0.366222 37 44 36
-0.412234 -0.775000 -0.393404 42 50 37
-0.208366 0.193375 -0.364547 38 45 37
0.481190 0.619101 -0.355450 36 48 38
-0.544149 0.019487 -0.379701 56 69 54
0.763008 -0.103433 -0.395985 85 99 79
-0.106431 -0.229352 -0.377434 52 65 48
0.097437 0.766006 -0.384371 33 45 35
-0.295309 -0.112427 -0.384210 52 65 48
0.769004 -0.736025 -0.394077 50 58 45
-0.673066 -0.355271 -0.384639 47 59 45
0.661073 -0.211364 -0.357336 61 74 57
0.199371 -0.388250 -0.372876 45 52 44
-0.037476 -0.121422 -0.370189 57 70 53
-0.688056 -0.439217 -0.371672 47 60 43
0.775000 0.223356 -0.378052 40 47 35
-0.082447 0.733027 -0.373802 35 47 37
-0.367263 -0.079449 -0.367230 60 74 57
0.043472 -0.328288 -0.404606 44 47 36
-0.160397 0.496180 -0.375998 39 46 37
0.541151 -0.604110 -0.365845 39 47 36
-0.211364 0.478191 -0.394589 36 48 34
-0.505174 0.298308 -0.377616 43 50 42
-0.160397 0.691054 -0.376792 34 46 36
-0.439217 -0.505174 -0.365949 43 55 41
0.526161 -0.445213 -0.388919 51 59 46
0.541151 -0.511170 -0.383547 50 58 45
-0.700048 0.274323 -0.362881 40 48 35
-0.196373 0.133414 -0.379849 49 63 48
0.145406 -0.388250 -0.376448 46 52 40
-0.619101 -0.184381 -0.384303 58 72 55
0.112427 -0.652079 -0.397277 41 49 36
-0.775000 0.649081 -0.363686 34 46 36
-0.052466 0.691054 -0.394463 37 45 32
-0.484188 -0.598114 -0.362103 49 57 45
-0.322292 -0.193375 -0.371202 57 70 53
-0.340280 -0.040474 -0.370180 80 96 77
0.622099 0.436219 -0.379097 38 48 39
0.694052 -0.739023 -0.354743 45 53 40
0.553143 0.625097 -0.383951 30 42 32
-0.652079 -0.622099 -0.371531 44 52 39
-0.031480 0.481190 -0.383548 36 48 34
-0.211364 0.769004 -0.368606 35 47 37
-0.649081 0.397244 -0.363602 36 48 34
-0.433220 0.490184 -0.399320 38 50 36
-0.190377 0.202369 -0.387764 44 51 43
-0.568133 -0.400242 -0.376278 48 60 46
-0.157398 0.163395 -0.367715 44 52 39
0.610106 -0.556141 -0.383032 48 56 43
0.286315 0.721035 -0.385860 35 47 37
-0.535155 0.580126 -0.382979 34 46 31
-0.451209 0.346277 -0.426698 40 52 38
-0.349275 -0.499178 -0.375656 40 52 38
-0.697050 0.235348 -0.370440 42 50 42
-0.613104 0.040474 -0.399739 69 82 64
0.025484 0.733027 -0.377967 34 45 34
0.337282 -0.703046 -0.376743 44 52 39
-0.010493 -0.139410 -0.406697 68 81 63
0.385251 0.406238 -0.401423 41 52 38
-0.424226 0.271325 -0.371898 43 51 38
-0.562137 0.601112 -0.363161 36 48 38
-0.007495 -0.766006 -0.391535 39 47 33
-0.688056 0.199371 -0.333118 38 45 37
0.418230 -0.751015 -0.369490 48 56 43
0.247340 -0.685058 -0.369266 41 49 36
0.175387 0.550145 -0.382149 34 46 32
-0.025484 -0.394246 -0.380875 44 50 38
0.526161 -0.064458 -0.384033 65 78 61
0.493182 0.547147 -0.378008 36 48 34
0.091441 0.664072 -0.372583 36 44 36
0.742021 0.439217 -0.378437 40 52 38
0.544149 0.646083 -0.381787 31 43 33
-0.031480 0.112427 -0.393403 69 84 65
-0.190377 -0.484188 -0.382974 44 52 39
-0.571132 0.106431 -0.388464 255 255 255
0.457205 0.448211 -0.405910 38 50 36
-0.475193 -0.676064 -0.381049 41 49 36
0.223356 0.403240 -0.412622 40 52 38
0.649081 -0.406238 -0.358489 42 54 40
-0.397244 -0.238346 -0.370347 69 82 65
0.571132 0.253337 -0.375060 40 52 38
-0.703046 -0.232350 -0.392054 56 71 52
-0.061460 0.514168 -0.367934 36 48 34
0.355271 -0.355271 -0.377010 51 57 44
0.397244 -0.757012 -0.385772 41 49 36
0.004497 0.043472 -0.373689 72 85 67
-0.649081 0.586122 -0.394569 21 26 20
0.028482 0.097437 -0.382440 97 115 90
-0.520164 -0.706044 -0.353631 40 48 35
-0.679062 0.409236 -0.384625 39 48 38
0.037476 0.310300 -0.370454 44 52 39
-0.361267 0.049468 -0.379526 86 101 81
0.145406 -0.754013 -0.382866 39 47 34
-0.469197 -0.712041 -0.371442 43 51 38
-0.739023 -0.181383 -0.363626 64 79 60
-0.337282 -0.013491 -0.373185 96 109 90
0.580126 0.520164 -0.386354 10 10 11
0.370261 -0.316296 -0.362060 49 60 46
0.016489 -0.358269 -0.389518 46 52 40
-0.493182 -0.190377 -0.378097 52 66 49
-0.433220 0.451209 -0.407073 39 51 37
0.727031 -0.586122 -0.385193 47 55 42
-0.349275 0.505174 -0.383257 37 49 35
0.034478 0.433220 -0.378267 37 49 35
-0.328288 0.349275 -0.351596 42 54 40
-0.736025 0.760010 -0.380046 34 41 33
0.697050 0.181383 -0.412066 44 52 39
-0.166393 -0.256335 -0.385137 51 64 46
-0.073453 0.436219 -0.389342 36 48 34
-0.613104 0.307302 -0.383213 38 50 36
0.055464 0.613104 -0.402187 35 47 36
0.406238 -0.517166 -0.372457 48 58 42
-0.370261 0.283317 -0.370728 46 54 41
-0.529159 0.664072 -0.357955 36 48 38
-0.052466 0.340280 -0.393778 37 49 35
0.757012 -0.184381 -0.383741 49 55 43
-0.529159 0.037476 -0.395814 96 111 88
0.064458 0.676064 -0.353819 36 48 38
-0.565135 -0.523162 -0.375029 45 57 43
0.769004 -0.379255 -0.373449 47 55 42
-0.520164 0.340280 -0.370337 41 53 39
-0.136412 -0.628095 -0.380011 38 46 33
-0.730029 0.382253 -0.402898 37 49 35
-0.058462 0.211364 -0.380625 41 48 40
-0.277321 -0.727031 -0.369312 39 47 34
0.028482 0.541151 -0.394848 40 47 39
0.001499 0.529159 -0.378601 37 49 35
0.445213 0.358269 -0.387505 40 52 38
-0.232350 -0.181383 -0.350033 57 70 53
-0.529159 0.151402 -0.399286 255 255 255
-0.040474 -0.121422 -0.359948 57 70 53
0.574130 0.619101 -0.374479 34 41 33
-0.295309 0.643085 -0.374764 35 47 33
0.550145 -0.631093 -0.397379 43 51 39
-0.058462 0.487186 -0.384038 36 48 34
-0.619101 -0.523162 -0.377525 48 56 43
-0.076451 0.460203 -0.379710 36 48 34
0.511170 0.109429 -0.401974 34 41 34
-0.487186 -0.301306 -0.366137 50 63 46
-0.241344 -0.397244 -0.372848 37 49 38
0.076451 -0.658075 -0.387234 45 54 41
-0.598114 -0.631093 -0.395757 46 54 41
-0.742021 -0.232350 -0.370063 60 74 57
0.544149 0.280319 -0.357281 40 52 38
-0.337282 0.742021 -0.378360 31 43 33
-0.730029 -0.583124 -0.365242 41 49 36
-0.646083 0.112427 -0.387405 40 46 37
-0.529159 -0.418230 -0.411997 47 59 45
0.775000 -0.643085 -0.390252 47 55 42
0.130416 0.559139 -0.365893 39 47 34
-0.685058 0.019487 -0.415019 52 66 49
-0.562137 -0.091441 -0.360678 78 94 74
-0.658075 0.688056 -0.376217 33 45 35
0.304304 0.385251 -0.366702 41 49 36
0.469197 -0.346277 -0.374380 50 62 48
0.730029 -0.058462 -0.366980 62 73 58
-0.577128 -0.733027 -0.391732 43 51 36
0.235348 -0.358269 -0.375258 51 59 46
-0.460203 0.394246 -0.382042 39 50 36
0.130416 0.205368 -0.384727 255 255 255
0.007495 -0.727031 -0.396626 46 53 40
0.547147 -0.019487 -0.375863 81 94 76
0.055464 0.040474 -0.386270 86 99 82
-0.571132 0.145406 -0.382883 255 255 255
0.448211 -0.301306 -0.382978 54 67 50
-0.223356 -0.664072 -0.376661 39 47 34
0.226354 -0.256335 -0.365298 51 61 46
-0.367263 0.229352 -0.368017 41 46 40
-0.106431 0.673066 -0.387423 35 47 37
0.331286 0.223356 -0.390033 38 45 37
-0.127418 -0.610106 -0.381442 42 50 37
-0.139410 -0.238346 -0.399192 52 64 49
-0.418230 0.427224 -0.395498 43 51 38
-0.100435 0.631093 -0.365625 35 47 37
0.004497 0.358269 -0.373755 37 49 35
-0.772002 0.700048 -0.405181 32 42 33
-0.007495 0.124420 -0.381192 71 86 67
-0.706044 -0.595116 -0.398311 41 49 36
0.469197 0.352273 -0.372540 38 50 36
-0.151402 -0.361267 -0.379093 42 50 37
-0.310300 -0.718037 -0.376656 41 49 36
-0.409236 0.733027 -0.371505 38 50 40
-0.421228 0.481190 -0.401913 38 50 36
-0.730029 0.172389 -0.382393 39 46 38
-0.268327 -0.028482 -0.377536 72 87 68
0.265329 0.733027 -0.394713 35 47 37
0.172389 -0.367263 -0.407688 46 51 39
-0.046470 0.196373 -0.363444 40 52 38
-0.487186 -0.508172 -0.384197 45 56 45
-0.541151 -0.664072 -0.415746 44 52 39
0.169391 -0.442215 -0.384710 47 55 42
0.184381 -0.520164 -0.358203 47 53 41
0.004497 0.001499 -0.392255 70 83 65
-0.361267 0.247340 -0.378224 35 42 35
0.091441 -0.298308 -0.380000 53 61 48
0.739023 0.088443 -0.404910 39 44 38
0.136412 0.214362 -0.376949 176 152 151
-0.085445 -0.499178 -0.379591 43 51 38
-0.028482 -0.193375 -0.393944 53 64 48
-0.655077 -0.067457 -0.380702 70 85 66
-0.595116 0.751015 -0.359785 31 43 33
0.769004 -0.544149 -0.374114 49 57 44
0.403240 0.439217 -0.388990 37 49 35
0.721035 0.142408 -0.373334 44 51 43
0.631093 0.385251 -0.373507 38 50 35
0.088443 0.115426 -0.362594 158 178 142
-0.214362 0.172389 -0.373079 44 51 43
0.577128 -0.595116 -0.370334 43 54 40
-0.205368 -0.013491 -0.380921 68 83 64
-0.277321 0.664072 -0.373738 34 46 37
-0.655077 0.322292 -0.367567 41 49 36
-0.169391 0.421228 -0.370235 36 49 36
0.589120 0.370261 -0.367644 38 50 36
0.109429 -0.568133 -0.355203 48 54 42
0.070455 -0.529159 -0.378068 47 53 41
-0.574130 -0.451209 -0.351394 50 62 48
0.499178 -0.193375 -0.365896 57 71 54
-0.295309 0.367263 -0.360429 45 53 40
-0.244342 0.016489 -0.366698 76 91 70
-0.082447 0.151402 -0.378368 45 53 40
-0.583124 -0.121422 -0.373161 76 89 72
-0.226354 -0.292311 -0.412468 53 61 48
0.712041 -0.754013 -0.390777 44 51 38
-0.748017 -0.673066 -0.380788 63 78 60
-0.739023 0.262331 -0.370269 39 48 35
-0.214362 -0.661073 -0.413532 41 49 37
-0.187379 0.439217 -0.382115 43 51 43
0.394246 -0.343278 -0.364993 50 63 46
-0.577128 -0.127418 -0.395540 48 62 46
-0.028482 -0.751015 -0.374136 40 45 38
-0.712041 0.619101 -0.397009 36 48 38
0.121422 -0.763008 -0.387815 41 46 34
-0.478191 -0.616103 -0.388319 44 52 39
0.607108 -0.562137 -0.361877 47 56 43
-0.421228 0.358269 -0.360409 40 52 38
0.244342 -0.499178 -0.399503 45 53 40
0.697050 0.073453 -0.387305 255 255 255
0.763008 0.109429 -0.381001 43 50 42
0.739023 -0.370261 -0.412423 51 64 47
0.220358 0.409236 -0.380240 40 52 38
-0.502176 -0.241344 -0.385799 50 63 46
-0.451209 -0.238346 -0.370710 49 62 45
-0.553143 0.559139 -0.369998 37 44 36
0.475193 0.478191 -0.357485 37 49 35
-0.730029 -0.034478 -0.346269 64 79 60
-0.238346 0.142408 -0.388381 45 53 45
0.712041 -0.403240 -0.365038 51 65 48
-0.193375 -0.526161 -0.384625 44 52 39
0.184381 0.712041 -0.383671 33 45 35
-0.349275 0.544149 -0.400890 34 46 32
0.550145 0.094439 -0.359685 34 39 33
-0.742021 -0.604110 -0.388772 45 57 43
-0.571132 -0.628095 -0.382640 45 53 40
0.673066 0.706044 -0.367294 30 42 32
-0.409236 0.718037 -0.371598 35 47 37
-0.451209 -0.634091 -0.383256 46 54 42
-0.538153 -0.316296 -0.353681 49 61 47
-0.115426 -0.664072 -0.352858 45 53 40
0.568133 0.628095 -0.393912 31 38 30
0.106431 -0.634091 -0.360951 44 52 39
-0.496180 -0.541151 -0.368897 46 54 41
-0.436219 0.142408 -0.353946 255 255 255
0.676064 -0.700048 -0.385452 43 51 38
0.268327 -0.619101 -0.397879 44 52 39
0.598114 0.142408 -0.385945 42 49 41
-0.310300 0.367263 -0.359034 43 51 38
0.658075 -0.247340 -0.373012 58 71 54
0.040474 0.544149 -0.394326 36 48 35
0.457205 -0.556141 -0.365111 44 52 39
0.025484 -0.757012 -0.353005 39 46 38
-0.139410 -0.112427 -0.384033 68 82 63
0.376257 0.601112 -0.369811 34 46 33
-0.127418 -0.148404 -0.411380 54 67 50
-0.766006 0.559139 -0.343795 35 47 33
-0.064458 0.268327 -0.367934 41 51 40
0.457205 -0.073453 -0.387027 69 84 65
-0.391248 0.211364 -0.345425 90 89 89
0.454207 -0.295309 -0.359653 54 67 50
0.028482 -0.691054 -0.377772 44 52 39
0.748017 0.442215 -0.376330 40 52 38
0.757012 0.751015 -0.377458 37 44 36
-0.385251 0.349275 -0.371237 43 51 41
0.025484 0.619101 -0.356104 35 47 33
-0.229352 -0.070455 -0.375977 62 76 58
-0.388250 -0.751015 -0.382393 41 49 36
0.652079 -0.172389 -0.394377 64 77 60
0.772002 0.541151 -0.372953 37 49 39
-0.628095 -0.076451 -0.356516 63 79 60
0.526161 0.373259 -0.381355 33 45 32
0.073453 -0.097437 -0.382211 55 67 52
0.109429 0.154400 -0.380319 255 255 255
-0.700048 -0.685058 -0.371811 38 46 33
-0.028482 -0.754013 -0.356993 39 44 37
-0.019487 0.622099 -0.380569 36 48 34
-0.172389 0.211364 -0.375603 42 49 41
0.427224 0.619101 -0.370542 35 47 37
0.172389 0.703046 -0.366241 35 42 34
0.661073 -0.406238 -0.391050 46 58 45
-0.070455 0.634091 -0.373788 35 47 33
-0.259333 0.286315 -0.367540 41 49 36
-0.439217 0.532157 -0.402856 36 47 38
0.643085 0.649081 -0.374338 34 43 34
-0.706044 -0.055464 -0.396902 66 80 62
0.499178 0.193375 -0.388587 38 51 37
0.025484 -0.382253 -0.380217 46 52 40
0.151402 0.421228 -0.359132 39 50 36
-0.619101 -0.415232 -0.379392 49 61 46
-0.514168 0.508172 -0.386425 35 47 33
0.610106 0.763008 -0.371767 29 41 31
0.547147 0.406238 -0.382864 38 50 36
0.082447 0.577128 -0.387704 36 48 34
0.451209 0.430222 -0.347440 38 50 36
-0.247340 -0.001499 -0.369033 71 86 67
-0.646083 -0.049468 -0.397463 72 87 68
-0.103433 -0.583124 -0.386282 43 51 38
0.043472 0.148404 -0.402163 72 72 75
-0.388250 0.187379 -0.373973 255 255 255
-0.331286 -0.076451 -0.385734 64 79 60
-0.472195 0.346277 -0.371411 40 52 41
0.718037 -0.091441 -0.358377 87 100 82
0.730029 0.523162 -0.383515 37 49 35
-0.070455 0.025484 -0.373746 76 90 72
-0.601112 -0.715039 -0.398325 42 49 41
-0.283317 0.358269 -0.364204 46 53 41
0.400242 0.379255 -0.365100 41 49 36
0.592118 0.424226 -0.372946 37 49 35
-0.487186 0.130416 -0.370322 255 255 255
0.319294 -0.532157 -0.375198 43 51 38
0.484188 -0.499178 -0.382323 48 59 45
0.322292 0.499178 -0.354750 37 49 36
0.367263 0.262331 -0.369144 43 51 38
-0.163395 0.712041 -0.352938 34 46 36
0.316296 0.721035 -0.388020 35 47 37
-0.253337 -0.409236 -0.370728 45 53 40
-0.319294 0.160397 -0.376826 255 255 255
0.583124 -0.283317 -0.396371 56 69 52
0.664072 0.208366 -0.396914 38 46 33
0.658075 -0.457205 -0.381405 51 59 46
-0.100435 -0.550145 -0.383402 43 51 38
-0.346277 0.604110 -0.367301 36 48 34
0.757012 -0.250338 -0.392664 48 60 46
-0.706044 0.727031 -0.378098 37 42 35
-0.649081 -0.199371 -0.368164 58 71 54
0.721035 0.274323 -0.368891 40 48 35
0.664072 0.439217 -0.384218 37 49 35
-0.169391 0.562137 -0.399446 32 42 33
-0.460203 0.397244 -0.349799 40 47 39
-0.703046 0.748017 -0.346526 33 46 36
-0.061460 -0.721035 -0.380878 47 55 42
-0.244342 -0.055464 -0.370711 63 76 58
-0.607108 -0.418230 -0.411716 49 62 46
-0.325290 0.700048 -0.379648 37 49 39
-0.106431 -0.346277 -0.382691 58 64 62
0.106431 -0.277321 -0.394666 44 57 44
0.070455 0.004497 -0.378085 74 87 69
-0.025484 0.238346 -0.386083 41 48 40
-0.511170 -0.499178 -0.351126 48 56 43
-0.334284 -0.712041 -0.395253 41 49 36
-0.466199 -0.139410 -0.366482 58 71 54
0.214362 -0.349275 -0.338143 48 56 43
-0.355271 0.193375 -0.394237 255 255 255
-0.508172 0.295309 -0.378685 43 50 42
-0.682060 0.628095 -0.380068 34 46 32
0.751015 -0.694052 -0.379242 43 51 38
0.109429 0.364265 -0.376695 42 52 39
-0.043472 0.643085 -0.375722 36 48 38
-0.445213 0.091441 -0.359222 118 134 106
-0.154400 0.481190 -0.389745 37 49 35
0.391248 0.367263 -0.372234 44 50 38
-0.490184 0.349275 -0.372828 43 51 38
0.052466 0.502176 -0.366529 37 49 39
-0.523162 0.334284 -0.401024 41 53 39
-0.124420 -0.679062 -0.365148 39 47 36
0.739023 -0.124420 -0.392525 76 89 71
0.097437 0.439217 -0.390775 37 49 35
0.076451 -0.709043 -0.358473 39 47 34
0.355271 0.547147 -0.361114 36 48 34
-0.625097 0.151402 -0.372885 35 36 32
0.574130 -0.001499 -0.368528 81 94 76
0.127418 0.580126 -0.370868 35 47 33
-0.463201 -0.268327 -0.398088 48 60 46
-0.754014 -0.031480 -0.383823 79 94 73
-0.217360 0.346277 -0.384247 43 51 38
-0.142408 -0.286315 -0.357987 47 55 42
0.469197 0.241344 -0.338480 40 52 38
0.253337 -0.286315 -0.365410 56 68 53
-0.748017 0.175387 -0.387859 40 47 39
0.715039 -0.229352 -0.381198 58 70 54
-0.712041 0.100435 -0.381887 37 44 36
0.688056 -0.268327 -0.396590 57 70 53
0.637089 0.136412 -0.393926 41 48 40
-0.490184 -0.664072 -0.368101 46 50 43
-0.586122 0.346277 -0.376624 45 53 40
0.406238 0.268327 -0.378847 43 51 38
0.526161 -0.115426 -0.377739 59 72 55
-0.307302 0.652079 -0.380447 36 48 38
-0.760010 0.253337 -0.394619 37 49 35
0.373259 -0.184381 -0.384419 54 67 50
-0.649081 0.127418 -0.382173 34 40 32
0.091441 -0.745019 -0.395875 43 51 38
-0.505174 0.271325 -0.393543 45 54 43
0.532157 0.157398 -0.363780 41 48 40
-0.559139 -0.547147 -0.387861 45 56 42
0.679062 0.664072 -0.380293 30 42 32
0.634091 -0.148404 -0.382365 68 81 63
0.361267 -0.310300 -0.367207 53 58 50
0.616103 0.286315 -0.381930 36 48 34
-0.385251 -0.406238 -0.383482 48 56 43
-0.472195 0.352273 -0.364447 38 50 36
-0.214362 -0.322292 -0.362949 63 71 56
0.031480 0.634091 -0.372241 35 47 33
0.505174 -0.562137 -0.372595 43 51 38
-0.499178 -0.700048 -0.365013 46 54 41
-0.610106 -0.061460 -0.393838 66 80 62
-0.115426 0.052466 -0.383585 58 72 55
0.760010 -0.019487 -0.413918 255 255 255
0.313298 -0.565135 -0.382995 44 52 39
-0.598114 -0.457205 -0.393977 49 62 45
-0.211364 0.271325 -0.369576 42 47 40
-0.670068 -0.685058 -0.393300 39 47 34
-0.364265 0.769004 -0.384511 32 44 34
-0.298308 0.538153 -0.386497 40 52 38
-0.769004 -0.577128 -0.377242 68 84 66
0.361267 0.157398 -0.367188 255 255 255
0.376257 -0.286315 -0.373437 52 63 47
0.769004 -0.085445 -0.373064 69 82 64
-0.103433 -0.058462 -0.414490 63 76 60
0.439217 0.505174 -0.367801 36 46 36
-0.463201 0.517166 -0.398089 36 48 38
-0.067456 0.466199 -0.380772 36 48 34
0.736025 -0.655077 -0.370814 44 52 39
-0.514168 -0.091441 -0.366575 51 63 49
0.646083 -0.022485 -0.358451 69 83 64
-0.463201 -0.577128 -0.398501 38 51 42
0.052466 0.550145 -0.368371 36 48 38
-0.499178 -0.364265 -0.375275 48 60 46
-0.658075 0.676064 -0.386282 35 47 37
-0.718037 -0.772002 -0.393769 50 63 48
-0.256335 -0.745019 -0.369572 44 52 39
-0.487186 -0.457205 -0.356435 45 57 43
-0.547147 0.496180 -0.371701 36 48 37
-0.745019 0.328288 -0.403606 36 48 34
-0.259333 0.184381 -0.390078 39 45 46
-0.427224 -0.229352 -0.392668 51 65 48
0.052466 -0.457205 -0.396956 43 51 38
-0.709043 -0.772002 -0.359338 47 58 43
0.049468 0.007495 -0.378389 93 107 88
0.595116 0.274323 -0.382127 27 33 24
-0.196373 -0.361267 -0.386878 47 55 42
0.652079 0.412234 -0.365797 40 46 39
-0.430222 0.742021 -0.420670 37 49 39
0.295309 -0.622099 -0.382467 44 52 39
-0.103433 -0.178385 -0.363329 59 72 55
-0.766006 0.382253 -0.368024 36 48 34
-0.649081 0.403240 -0.399901 38 50 37
0.718037 0.754014 -0.393835 29 41 31
-0.772002 0.649081 -0.394776 34 46 36
0.481190 0.394246 -0.380818 38 50 36
-0.721035 0.730029 -0.385427 34 44 35
0.658075 0.313298 -0.388344 44 52 39
-0.547147 -0.487186 -0.387929 48 60 46
-0.424226 -0.613104 -0.399184 45 53 40
-0.649081 0.286315 -0.392398 43 51 38
-0.733027 -0.631093 -0.394554 44 56 41
-0.067456 -0.679062 -0.394065 43 51 38
-0.694052 -0.661073 -0.383574 39 47 34
0.169391 -0.376257 -0.383535 45 51 40
-0.553143 0.673066 -0.365915 35 47 37
-0.487186 0.763008 -0.362058 44 56 46
0.031480 0.241344 -0.349364 43 50 42
-0.265329 0.631093 -0.381630 36 48 34
-0.076451 -0.607108 -0.385500 43 51 38
0.043472 -0.100435 -0.378215 56 69 52
0.142408 0.214362 -0.381141 116 107 100
0.565135 -0.364265 -0.391654 51 64 48
0.232350 0.649081 -0.382665 34 46 35
0.466199 0.760010 -0.372446 36 48 38
0.094439 -0.526161 -0.385733 47 55 42
0.271325 0.736025 -0.418191 35 47 37
-0.751015 0.586122 -0.363834 35 47 37
0.448211 0.172389 -0.380351 40 47 39
0.553143 -0.472195 -0.410728 49 59 46
0.202369 -0.316296 -0.385548 46 54 41
-0.097437 0.355271 -0.366848 37 49 35
0.436219 -0.655077 -0.395661 42 50 37
-0.451209 -0.094439 -0.387539 61 74 56
-0.742021 -0.073453 -0.377208 47 56 43
-0.733027 0.616103 -0.383672 35 47 34
-0.157398 -0.733027 -0.382253 44 52 39
-0.151402 0.016489 -0.351991 65 80 61
0.307302 0.532157 -0.373032 36 48 34
-0.289313 -0.661073 -0.380811 43 51 38
-0.652079 0.139410 -0.362634 34 39 32
0.295309 0.271325 -0.376634 41 53 39
-0.703046 0.772002 -0.409629 34 46 36
-0.307302 -0.499178 -0.386434 44 52 39
0.679062 0.520164 -0.382630 31 38 31
-0.724033 -0.520164 -0.376310 43 51 38
0.229352 0.364265 -0.391217 40 52 38
0.148404 0.169391 -0.415058 255 255 255
-0.538153 -0.616103 -0.368028 45 53 40
0.673066 0.697050 -0.346239 30 42 32
0.679062 -0.328288 -0.402241 53 65 51
-0.382253 -0.667070 -0.370282 45 53 40
0.565135 0.223356 -0.391888 41 53 39
-0.289313 -0.169391 -0.395118 57 71 54
-0.484188 -0.691054 -0.391664 40 48 35
-0.283317 -0.625097 -0.364452 43 51 38
-0.106431 0.613104 -0.397471 35 47 36
-0.277321 -0.067457 -0.407935 75 87 70
0.526161 0.598114 -0.396869 34 46 36
0.280319 -0.343278 -0.354199 54 65 49
-0.670068 -0.247340 -0.399440 44 56 42
0.070455 0.304304 -0.388911 45 53 40
0.064458 0.274323 -0.393483 45 51 39
0.565135 -0.409236 -0.352399 49 61 47
-0.700048 0.370261 -0.379656 38 50 36
0.646083 -0.226354 -0.366834 59 72 55
-0.004497 -0.340280 -0.403313 40 46 33
-0.340280 0.544149 -0.384161 35 47 33
-0.043472 -0.220358 -0.394230 47 60 43
-0.388250 -0.577128 -0.387067 44 52 39
-0.592118 -0.280319 -0.388069 49 62 45
-0.358269 0.478191 -0.381474 37 49 35
0.427224 0.532157 -0.381487 34 46 32
-0.565135 0.520164 -0.371335 37 44 36
0.436219 -0.244342 -0.343669 53 66 50
-0.082447 -0.136412 -0.385289 57 70 53
0.532157 -0.190377 -0.386554 55 69 52
0.067457 -0.751015 -0.376573 40 48 35
0.118424 -0.340280 -0.381645 44 50 38
0.625097 0.412234 -0.382327 34 41 31
0.334284 0.514168 -0.359121 37 49 35
-0.454207 0.430222 -0.366310 39 51 37
0.751015 0.040474 -0.387140 255 255 255
0.211364 0.358269 -0.386746 43 51 38
-0.607108 -0.010493 -0.375306 48 60 46
0.541151 -0.775000 -0.384055 40 47 38
0.547147 -0.247340 -0.388149 55 68 51
0.097437 -0.616103 -0.384701 42 50 37
-0.298308 -0.292311 -0.387179 56 69 52
0.544149 0.403240 -0.391919 38 50 36
-0.301306 -0.292311 -0.377946 58 71 54
0.724033 -0.505174 -0.392633 45 57 43
-0.505174 0.667070 -0.376598 37 49 35
0.115426 0.202369 -0.381226 255 255 255
-0.304304 0.352273 -0.387030 45 53 40
0.355271 0.592118 -0.381989 34 46 32
-0.199371 0.493182 -0.373354 36 48 35
-0.370261 0.226354 -0.371003 41 46 40
0.151402 0.502176 -0.394606 35 47 33
-0.457205 0.061460 -0.388926 131 150 120
-0.217360 0.193375 -0.350618 38 45 37
0.253337 -0.337282 -0.362746 45 53 40
-0.076451 0.007495 -0.363756 61 76 57
0.163395 0.775000 -0.370586 34 46 36
-0.052466 0.145406 -0.364009 45 57 42
-0.724033 0.655077 -0.355841 35 47 37
-0.724033 0.046470 -0.374873 43 51 41
0.109429 0.616103 -0.383048 37 49 35
0.637089 0.682060 -0.390349 32 44 29
0.073453 -0.640087 -0.388367 40 48 35
-0.244342 0.400242 -0.378678 39 49 39
0.658075 0.310300 -0.373246 44 52 39
0.487186 -0.310300 -0.383889 54 67 50
0.190377 -0.364265 -0.367031 46 55 41
0.622099 0.664072 -0.373447 34 46 31
-0.214362 -0.529159 -0.362754 45 53 40
-0.118424 -0.478192 -0.377362 45 53 40
-0.259333 0.238346 -0.388685 41 48 40
0.220358 -0.580126 -0.401238 45 53 40
-0.631093 -0.043472 -0.374448 65 78 60
0.007495 -0.613104 -0.380343 43 51 38
-0.376257 0.703046 -0.389286 37 49 39
0.604110 -0.544149 -0.369025 47 60 45
0.694052 -0.454207 -0.399961 49 62 45
-0.436219 0.277321 -0.379899 41 52 40
-0.010493 -0.442215 -0.394723 48 54 42
0.367263 0.586122 -0.396600 35 47 37
-0.340280 -0.745019 -0.376858 43 51 41
0.478192 -0.439217 -0.378549 50 58 45
0.061460 0.061460 -0.381264 97 112 90
-0.316296 0.115426 -0.405943 97 110 87
-0.712041 0.649081 -0.373448 35 47 37
0.556141 -0.178385 -0.393424 61 76 57
-0.001499 -0.037476 -0.374922 64 77 59
-0.220358 -0.718037 -0.362134 39 46 39
0.514168 -0.553143 -0.394537 46 54 41
-0.349275 0.646083 -0.363379 37 49 35
-0.643085 0.739023 -0.370406 28 40 30
0.112427 0.775000 -0.386822 33 45 35
0.220358 0.592118 -0.375736 24 31 25
-0.166393 -0.313298 -0.404696 44 52 39
-0.508172 0.751015 -0.365838 43 55 41
-0.682060 -0.124420 -0.377342 50 62 48
-0.679062 0.658075 -0.369306 36 48 38
-0.757012 -0.643085 -0.394847 71 86 64
0.136412 0.655077 -0.383661 35 47 37
0.274323 0.361267 -0.388731 41 49 36
0.160397 0.643085 -0.384003 35 47 33
0.544149 -0.583124 -0.385059 44 52 41
-0.637089 -0.361267 -0.381771 49 61 47
-0.718037 -0.685058 -0.355455 38 46 33
0.463201 0.406238 -0.387724 38 50 36
-0.169391 0.394246 -0.362566 37 49 39
0.109429 -0.571132 -0.374819 49 55 43
0.409236 0.463201 -0.388887 40 52 38
-0.484188 -0.448211 -0.356216 47 55 42
-0.610106 -0.688056 -0.392092 43 51 38
-0.700048 -0.706044 -0.375852 37 45 32
0.439217 0.613104 -0.374855 35 43 34
-0.652079 0.316296 -0.374257 43 51 38
-0.187379 -0.577128 -0.381253 44 52 39
0.571132 0.226354 -0.349975 44 53 40
-0.031480 0.163395 -0.376968 44 52 39
-0.601112 -0.265329 -0.384879 49 61 47
0.667070 0.151402 -0.391339 43 52 39
-0.643085 -0.193375 -0.373209 59 72 55
0.568133 0.325290 -0.367678 38 50 36
0.073453 0.670068 -0.400179 35 47 37
0.403240 0.370261 -0.393687 43 51 38
-0.235348 0.283317 -0.389673 39 47 39
0.487186 0.544149 -0.366082 36 48 34
0.664072 -0.646083 -0.356551 45 53 40
-0.703046 -0.055464 -0.371753 66 82 63
0.436219 -0.355271 -0.365594 51 63 47
-0.607108 0.301306 -0.380222 38 50 36
0.610106 -0.079449 -0.372082 77 90 72
0.628095 -0.199371 -0.371111 62 75 58
0.232350 -0.478192 -0.387269 46 54 41
0.661073 0.739023 -0.361067 31 43 33
-0.685058 0.598114 -0.355761 36 48 34
0.403240 -0.358269 -0.363694 49 60 46
-0.673066 0.190377 -0.385105 37 44 36
0.196373 0.334284 -0.386742 43 51 38
-0.598114 0.442215 -0.359230 37 49 35
-0.625097 -0.085445 -0.382955 63 79 60
0.520164 0.331286 -0.394258 43 51 38
-0.685058 -0.742021 -0.400425 44 52 40
0.688056 -0.319294 -0.407454 54 66 52
-0.178385 -0.556141 -0.390914 46 54 40
0.604110 -0.106431 -0.376743 75 88 70
0.406238 0.265329 -0.377320 43 51 38
-0.340280 0.316296 -0.371734 42 53 39
0.025484 -0.589120 -0.414394 41 49 36
-0.283317 -0.604110 -0.397537 46 54 41
-0.355271 -0.067457 -0.399006 64 77 59
-0.190377 -0.457205 -0.390399 47 55 42
-0.514168 0.661074 -0.401717 37 49 35
-0.751015 0.754014 -0.384813 34 41 33
-0.601112 0.274323 -0.358548 41 48 40
0.256335 0.424226 -0.416458 38 50 36
-0.049468 -0.133414 -0.377172 59 72 54
0.649081 -0.142408 -0.394519 65 78 60
0.394246 -0.586122 -0.362081 44 52 39
-0.688056 -0.661073 -0.406190 40 47 39
-0.649081 0.178385 -0.360304 37 44 36
0.325290 -0.478192 -0.390362 44 52 39
0.469197 -0.616103 -0.360667 44 52 39
0.028482 0.445213 -0.374870 37 49 35
-0.628095 0.613104 -0.381528 70 71 66
0.283317 0.550145 -0.392328 35 47 33
0.610106 -0.607108 -0.394509 46 54 41
-0.046470 0.001499 -0.353829 63 76 59
-0.436219 0.319294 -0.389179 41 50 39
0.682060 -0.568133 -0.384403 50 58 45
-0.706044 0.595116 -0.364118 36 48 38
-0.736025 -0.181383 -0.363686 64 79 60
0.742021 -0.739023 -0.407626 54 68 51
0.010493 0.682060 -0.415390 35 47 37
-0.121422 0.139410 -0.373654 48 57 47
0.610106 0.670068 -0.399120 34 42 28
0.646083 -0.442215 -0.376783 49 61 47
-0.718037 0.766006 -0.367698 33 45 35
0.361267 0.367263 -0.394148 43 51 38
-0.025484 0.061460 -0.374160 70 85 66
0.127418 -0.424226 -0.377229 48 56 43
0.541151 -0.487186 -0.384883 50 58 45
-0.154400 0.448211 -0.381619 37 49 35
-0.424226 -0.349275 -0.364420 44 56 42
-0.025484 0.253337 -0.367680 41 48 40
-0.526161 -0.748017 -0.380182 40 48 35
-0.295309 0.328288 -0.398389 41 50 37
0.481190 -0.259333 -0.383539 54 66 51
-0.307302 0.775000 -0.361169 34 46 36
0.289313 0.472195 -0.392857 38 50 36
0.439217 0.307302 -0.363395 43 51 38
0.700048 -0.676064 -0.403355 47 55 42
-0.232350 -0.571132 -0.399533 44 52 39
-0.553143 0.388250 -0.361305 44 52 39
-0.205368 -0.517166 -0.370277 45 53 40
0.064458 0.682060 -0.380954 35 47 37
0.445213 -0.427224 -0.377860 46 58 44
-0.637089 -0.535155 -0.390393 48 56 43
-0.658075 0.166393 -0.362835 34 41 33
-0.358269 -0.082447 -0.406384 64 79 60
-0.730029 0.229352 -0.383045 41 49 36
-0.673066 0.685058 -0.367365 36 48 38
-0.607108 0.055464 -0.396095 74 88 68
-0.760010 0.139410 -0.396728 40 47 39
-0.364265 -0.727031 -0.390139 41 49 36
0.232350 -0.394246 -0.374211 46 54 41
0.724033 0.637089 -0.401440 36 48 37
0.064458 -0.634091 -0.397105 40 48 35
-0.631093 -0.670068 -0.366886 44 52 39
-0.481190 -0.037476 -0.406834 93 108 86
-0.688056 -0.583124 -0.369826 44 52 39
-0.142408 -0.067457 -0.396827 61 74 56
-0.193375 0.004497 -0.385813 69 84 65
0.226354 -0.619101 -0.395499 44 52 39
-0.595116 -0.577128 -0.388249 48 56 43
0.670068 -0.208366 -0.378357 59 72 55
0.706044 -0.484188 -0.415120 51 59 46
-0.679062 0.010493 -0.366697 57 71 54
0.523162 0.160397 -0.381521 43 51 38
0.079449 -0.574130 -0.385631 42 50 37
0.736025 0.484188 -0.374222 38 50 36
0.259333 0.634091 -0.379704 31 43 33
-0.358269 -0.376257 -0.362325 42 55 41
0.103433 0.463201 -0.380197 36 48 34
-0.238346 0.163395 -0.363585 39 46 37
-0.376257 -0.094439 -0.413794 57 71 54
0.544149 0.742021 -0.409234 34 46 36
0.301306 -0.697050 -0.371849 43 50 42
0.319294 -0.760010 -0.374209 42 50 37
0.061460 -0.766006 -0.356115 39 46 36
-0.376257 0.661074 -0.398885 37 49 39
0.700048 -0.148404 -0.366902 50 62 47
0.490184 -0.562137 -0.410265 45 53 40
0.370261 -0.547147 -0.399060 44 52 39
0.244342 0.508172 -0.378027 37 49 38
-0.628095 0.634091 -0.373607 27 36 27
-0.340280 0.655077 -0.395518 37 49 35
0.184381 -0.484188 -0.363686 44 52 39
-0.514168 0.346277 -0.364494 40 52 38
0.100435 0.163395 -0.388709 255 255 255
0.109429 0.469197 -0.372580 38 47 36
-0.685058 0.253337 -0.367844 40 51 37
0.634091 0.469197 -0.422676 36 43 35
-0.682060 0.529159 -0.381316 34 46 35
0.400242 0.214362 -0.374766 38 46 36
0.598114 0.649081 -0.392008 14 16 15
0.304304 0.733027 -0.384965 35 47 37
-0.376257 0.037476 -0.372658 94 109 86
0.412234 0.484188 -0.364540 55 61 48
-0.145406 0.583124 -0.398665 36 48 34
0.154400 -0.433220 -0.376421 48 56 43
0.175387 -0.250338 -0.381150 47 60 44
0.013491 0.643085 -0.374843 35 47 37
-0.490184 -0.682060 -0.371222 40 49 34
0.169391 0.550145 -0.395307 36 45 35
0.013491 -0.484188 -0.375546 42 48 36
-0.064458 0.529159 -0.415022 37 49 35
-0.697050 0.289313 -0.376758 41 49 36
0.742021 0.739023 -0.367466 34 46 36
-0.463201 0.331286 -0.397126 41 53 39
-0.556141 0.178385 -0.406725 149 148 148
-0.490184 0.448211 -0.417592 36 48 38
0.115426 -0.571132 -0.347773 45 54 40
-0.763008 -0.583124 -0.372987 48 61 44
-0.097437 0.349275 -0.393167 39 48 35
-0.082447 -0.745019 -0.391291 39 46 38
0.466199 0.055464 -0.384979 49 61 46
0.394246 0.376257 -0.391224 41 49 36
-0.439217 -0.397244 -0.393506 44 56 42
0.094439 -0.349275 -0.395927 51 57 45
0.427224 0.232350 -0.389684 43 51 38
0.553143 0.016489 -0.400358 69 79 62
-0.316296 -0.013491 -0.383668 71 84 66
0.127418 0.622099 -0.399517 37 49 39
-0.694052 0.592118 -0.376142 36 48 38
-0.670068 -0.760010 -0.371596 40 48 35
-0.235348 -0.007495 -0.381081 70 83 65
-0.112427 -0.163395 -0.368919 57 69 52
-0.139410 -0.130416 -0.401193 58 71 53
0.451209 0.487186 -0.370006 34 45 33
-0.448211 -0.715039 -0.379168 43 51 38
-0.469197 -0.538153 -0.381213 43 54 40
0.082447 0.772002 -0.378009 33 45 35
0.505174 0.097437 -0.402454 39 46 38
-0.040474 0.685058 -0.371948 36 48 38
0.037476 0.199371 -0.365318 143 149 158
-0.160397 -0.637089 -0.389800 38 46 33
0.025484 0.427224 -0.373445 37 49 35
-0.427224 -0.127418 -0.383230 62 76 58
-0.157398 0.133414 -0.372149 51 64 47
0.703046 0.631093 -0.405159 33 43 34
0.679062 -0.403240 -0.376265 51 64 49
0.061460 -0.151402 -0.366479 59 67 54
0.286315 -0.334284 -0.399011 57 62 49
0.652079 0.172389 -0.380285 45 53 40
0.712041 -0.733027 -0.382557 37 49 39
-0.637089 0.319294 -0.381009 42 51 37
-0.247340 0.253337 -0.376656 39 46 38
-0.175387 -0.628095 -0.380619 43 51 38
0.226354 0.631093 -0.374293 34 46 36
0.352273 -0.691054 -0.400322 44 52 39
-0.343279 0.184381 -0.365774 255 255 255
0.502176 0.622099 -0.365597 35 47 32
0.586122 0.259333 -0.390223 40 53 38
-0.709043 -0.010493 -0.381542 58 74 56
0.028482 -0.712041 -0.355937 40 48 35
-0.070455 -0.628095 -0.375838 44 52 39
-0.055464 0.199371 -0.375922 45 53 40
0.022485 0.262331 -0.377712 39 46 38
0.313298 0.745019 -0.367259 36 48 38
-0.589120 0.034478 -0.382687 80 93 75
0.676064 -0.412234 -0.357436 60 73 54
0.526161 0.514168 -0.374426 34 46 36
0.745019 0.400242 -0.385114 41 53 39
-0.034478 -0.742021 -0.376986 42 48 35
-0.304304 0.673066 -0.370873 36 48 37
-0.094439 0.682060 -0.381384 35 47 37
0.241344 0.466199 -0.371391 38 50 36
0.049468 0.661074 -0.384368 37 49 39
0.106431 0.484188 -0.364640 36 48 34
0.337282 0.370261 -0.398022 39 51 37
0.583124 0.409236 -0.378264 38 50 36
0.349275 -0.724033 -0.384725 47 55 42
0.265329 0.502176 -0.362576 39 47 34
0.496180 0.496180 -0.359928 35 47 33
-0.460203 0.151402 -0.382737 255 255 255
-0.682060 0.523162 -0.385031 34 46 36
-0.307302 -0.010493 -0.401476 71 84 66
-0.712041 -0.286315 -0.402968 43 55 41
-0.259333 -0.565135 -0.392184 43 51 38
-0.730029 -0.049468 -0.400194 79 97 76
-0.598114 0.766006 -0.416776 30 42 32
-0.562137 -0.016489 -0.384623 72 85 67
-0.061460 0.187379 -0.365017 31 36 29
0.034478 0.766006 -0.378839 34 46 36
0.748017 -0.370261 -0.394769 50 62 48
0.193375 -0.322292 -0.389063 53 61 47
-0.541151 -0.007495 -0.379212 72 85 65
-0.046470 0.364265 -0.382912 37 49 35
-0.577128 -0.232350 -0.359655 64 77 62
-0.124420 -0.271325 -0.393898 45 53 40
-0.076451 -0.076451 -0.373520 60 73 55
-0.145406 -0.640087 -0.393065 38 45 37
0.367263 0.652079 -0.354130 33 44 36
-0.667070 -0.301306 -0.391974 55 69 51
-0.343279 -0.286315 -0.395652 49 59 44
0.262331 -0.736025 -0.375183 38 46 33
0.073453 0.241344 -0.394376 43 50 43
