ply
format ascii 1.0
element vertex 1255
property float x
property float y
property float z
property uchar red
property uchar green
property uchar blue
end_header
0.082447 -0.499178 -0.392481 47 53 41
0.058462 0.409236 -0.351392 37 49 35
0.538153 -0.070455 -0.375556 50 63 46
0.148404 0.280319 -0.359476 41 53 39
0.223356 -0.550145 -0.382813 47 55 42
-0.529159 -0.367263 -0.387472 50 62 48
-0.532157 -0.073453 -0.385789 60 74 57
0.205368 -0.748017 -0.419108 40 52 38
0.427224 0.319294 -0.386810 40 52 38
0.490184 0.457205 -0.365874 37 49 35
-0.190377 -0.442215 -0.362351 49 57 42
-0.100435 0.679062 -0.356625 35 46 37
0.523162 0.376257 -0.390947 35 47 33
-0.118424 0.277321 -0.392015 41 48 40
-0.325290 0.766006 -0.365488 34 46 36
-0.205368 -0.478192 -0.383275 46 54 41
0.325290 0.616103 -0.396005 31 43 34
-0.061460 0.364265 -0.374849 37 49 35
-0.568133 -0.220358 -0.398164 59 67 51
-0.706044 -0.148404 -0.377873 62 76 58
-0.250338 0.541151 -0.389032 35 47 33
0.088443 -0.538153 -0.392481 47 55 42
0.088443 0.769004 -0.372962 33 45 35
0.646083 0.421228 -0.361687 35 48 38
0.607108 -0.577128 -0.390796 47 55 42
0.598114 0.667070 -0.384780 29 39 30
0.148404 -0.313298 -0.386613 47 55 42
-0.514168 -0.280319 -0.400676 50 63 46
0.094439 0.142408 -0.383446 79 85 86
0.385251 0.301306 -0.385310 42 52 39
-0.295309 0.646083 -0.383280 35 47 33
0.694052 0.727031 -0.368303 29 41 31
-0.592118 0.730029 -0.355530 31 43 33
0.577128 -0.307302 -0.373345 53 66 49
-0.040474 -0.160397 -0.385444 53 66 49
-0.331286 -0.499178 -0.399478 43 51 38
0.295309 0.319294 -0.373557 42 53 39
0.187379 0.325290 -0.379130 43 52 39
-0.724033 -0.721035 -0.402210 43 51 38
-0.577128 -0.766006 -0.363635 41 48 38
0.328288 -0.550145 -0.391019 44 52 39
0.208366 0.508172 -0.391840 41 49 36
-0.373259 -0.469197 -0.401478 46 58 44
0.382253 -0.349275 -0.376599 49 57 44
-0.652079 -0.211364 -0.351476 54 68 51
0.112427 0.706044 -0.365584 34 45 37
-0.307302 -0.244342 -0.372517 55 68 51
-0.754014 -0.682060 -0.388964 64 79 60
0.391248 -0.688056 -0.397627 43 51 38
-0.598114 0.133414 -0.376481 255 255 255
-0.175387 -0.523162 -0.397287 52 60 47
0.649081 0.376257 -0.379300 38 50 36
0.505174 0.094439 -0.380142 24 30 22
0.220358 0.691054 -0.381459 33 45 35
0.679062 -0.565135 -0.372186 50 59 46
-0.622099 -0.187379 -0.375829 57 72 55
0.346277 0.757012 -0.384423 37 49 39
-0.715039 0.472195 -0.392430 36 48 35
0.412234 -0.406238 -0.373611 56 68 53
0.070455 0.604110 -0.376936 36 48 35
0.274323 0.550145 -0.367975 34 46 32
-0.337282 -0.052466 -0.377882 63 76 60
0.754013 -0.376257 -0.353229 51 60 46
0.571132 0.565135 -0.367193 27 30 24
0.766006 0.520164 -0.390899 37 49 35
-0.184381 0.541151 -0.386323 34 46 32
0.277321 -0.673066 -0.387170 43 51 38
0.049468 0.448211 -0.399900 36 48 34
0.385251 -0.616103 -0.388148 44 52 39
0.532157 -0.568133 -0.381860 37 45 32
0.001499 0.343279 -0.380645 37 49 35
0.169391 -0.562137 -0.376082 47 55 42
0.526161 -0.580126 -0.404227 40 47 39
-0.463201 0.337282 -0.391321 41 53 39
0.289313 0.394246 -0.386317 38 50 36
-0.487186 0.319294 -0.395531 41 53 39
-0.259333 0.046470 -0.375717 85 98 78
0.409236 0.745019 -0.381628 36 48 38
-0.499178 -0.697050 -0.365742 46 54 41
0.361267 -0.661073 -0.379267 48 56 43
-0.550145 0.772002 -0.374842 34 46 36
0.010493 0.079449 -0.387428 80 95 76
0.622099 -0.304304 -0.371684 52 64 49
0.601112 -0.688056 -0.368223 46 54 41
-0.079449 0.661074 -0.381208 35 47 37
0.124420 -0.319294 -0.372272 48 54 41
0.085445 -0.577128 -0.364123 45 53 40
-0.487186 -0.733027 -0.377077 40 48 35
0.511170 0.028482 -0.398373 64 77 59
-0.193375 -0.544149 -0.359336 47 55 42
0.586122 0.703046 -0.381207 30 42 32
0.295309 0.448211 -0.414956 40 49 36
-0.022485 0.286315 -0.381133 42 51 38
0.718037 -0.580126 -0.383459 48 56 43
-0.571132 0.223356 -0.374420 39 46 38
0.562137 -0.673066 -0.382319 44 52 39
0.280319 -0.484188 -0.371465 46 54 41
-0.133414 -0.046470 -0.366456 62 77 58
0.220358 0.547147 -0.378155 37 44 36
-0.610106 0.772002 -0.405493 30 42 32
-0.214362 0.226354 -0.374904 41 49 36
0.034478 -0.601112 -0.397744 42 48 36
0.772002 0.586122 -0.389481 36 48 38
-0.340280 0.181383 -0.371510 255 255 255
-0.361267 0.625097 -0.387980 37 49 36
-0.643085 -0.427224 -0.397078 48 60 46
0.514168 0.130416 -0.387934 45 53 40
-0.646083 0.565135 -0.377424 30 37 29
0.490184 -0.463201 -0.393474 48 60 46
0.637089 0.268327 -0.395897 42 51 38
-0.298308 0.616103 -0.364957 35 47 33
-0.673066 0.172389 -0.377462 37 44 36
-0.004497 0.703046 -0.383474 35 47 37
-0.397244 -0.223356 -0.377220 54 67 50
0.727031 -0.541151 -0.367499 51 60 47
-0.520164 0.727031 -0.379407 36 48 38
-0.619101 0.502176 -0.333288 38 47 35
-0.349275 -0.211364 -0.390020 54 67 50
-0.079449 -0.739023 -0.368824 40 48 35
0.478192 0.526161 -0.378867 36 48 34
-0.415232 0.475193 -0.398162 37 49 35
-0.259333 0.544149 -0.371754 35 47 34
-0.472195 -0.700048 -0.392561 43 51 38
-0.712041 0.415232 -0.373859 41 49 36
-0.367263 0.634091 -0.400391 37 49 39
-0.049468 0.145406 -0.373521 45 58 42
-0.373259 -0.607108 -0.377887 44 52 39
0.631093 -0.664072 -0.386663 46 54 41
0.550145 -0.133414 -0.361704 61 74 57
-0.544149 0.370261 -0.372265 39 48 39
-0.193375 0.526161 -0.387988 35 47 33
-0.631093 0.556141 -0.384590 31 38 30
-0.613104 -0.463201 -0.346890 53 67 49
0.385251 0.106431 -0.401091 35 40 33
-0.157398 0.016489 -0.377613 66 81 62
-0.091441 0.625097 -0.377701 35 47 34
0.079449 -0.406238 -0.384537 48 54 42
-0.481190 -0.109429 -0.348629 55 68 51
0.130416 -0.289313 -0.371675 51 64 48
-0.604110 0.637089 -0.432937 32 39 31
0.052466 0.601112 -0.391825 36 47 39
0.094439 0.556141 -0.389920 37 49 35
0.598114 -0.748017 -0.390291 44 52 39
-0.427224 -0.577128 -0.362049 45 53 40
-0.649081 0.037476 -0.386569 55 68 51
-0.475193 -0.196373 -0.393593 55 68 51
-0.454207 -0.055464 -0.374083 73 87 68
0.526161 0.592118 -0.365086 34 46 36
-0.556141 -0.655077 -0.374260 44 52 39
0.565135 0.607108 -0.374553 33 43 34
-0.358269 0.364265 -0.404555 42 54 40
0.673066 0.775000 -0.395740 30 42 32
0.592118 -0.301306 -0.401964 54 66 52
0.076451 -0.442215 -0.386713 47 54 41
-0.751015 -0.040474 -0.369982 65 80 61
-0.112427 0.010493 -0.369048 63 77 59
-0.697050 -0.019487 -0.368832 63 78 59
-0.772002 0.217360 -0.353211 38 50 36
0.241344 -0.688056 -0.371313 40 48 35
-0.442215 0.115426 -0.375122 173 192 195
0.259333 -0.634091 -0.384538 43 51 38
-0.394246 -0.343278 -0.358048 50 59 46
-0.166393 0.331286 -0.409146 43 51 38
0.172389 0.451209 -0.388906 38 50 36
-0.547147 -0.439217 -0.335035 48 61 44
-0.373259 -0.658075 -0.369040 45 53 40
-0.766006 -0.097437 -0.386518 68 83 64
-0.760010 0.682060 -0.368082 33 45 35
0.322292 0.457205 -0.382496 38 50 36
-0.637089 -0.439217 -0.388047 49 62 46
-0.493182 0.415232 -0.391026 45 54 41
-0.355271 -0.712041 -0.387216 44 52 37
-0.628095 0.610106 -0.386023 79 80 75
0.667070 0.193375 -0.383056 42 54 40
-0.541151 -0.280319 -0.383915 53 65 51
-0.673066 0.229352 -0.373280 43 50 42
-0.229352 0.556141 -0.387580 37 49 35
-0.034478 -0.004497 -0.390949 67 80 63
0.331286 -0.577128 -0.397301 45 53 40
-0.151402 -0.367263 -0.370305 36 42 31
0.583124 -0.148404 -0.406903 64 77 60
-0.040474 -0.703046 -0.370050 40 48 35
0.076451 0.589120 -0.358193 36 48 34
0.175387 -0.676064 -0.388323 40 48 35
-0.184381 0.577128 -0.395455 28 40 32
0.394246 0.268327 -0.380492 43 51 38
0.049468 0.238346 -0.377154 45 52 44
0.517166 -0.523162 -0.369485 47 58 44
-0.571132 0.010493 -0.359579 68 83 64
0.127418 0.391248 -0.398141 40 52 38
0.388250 -0.439217 -0.381011 47 55 42
-0.085445 0.454207 -0.386668 36 48 34
-0.376257 0.178385 -0.389403 255 255 255
0.346277 -0.445213 -0.382456 43 51 37
-0.172389 -0.121422 -0.403976 57 70 53
0.517166 -0.583124 -0.386113 41 49 39
0.058462 0.388250 -0.369370 37 49 35
-0.397244 -0.640087 -0.395146 43 51 38
-0.709043 -0.397244 -0.410593 52 64 50
-0.625097 0.532157 -0.403455 22 24 21
-0.562137 -0.007495 -0.394120 69 82 64
-0.394246 0.730029 -0.387891 37 49 38
-0.763008 0.523162 -0.392757 36 48 37
-0.193375 -0.559139 -0.389782 51 59 47
0.487186 0.274323 -0.391495 44 52 39
0.682060 -0.103433 -0.393907 50 62 48
0.520164 -0.028482 -0.366202 72 87 68
-0.364265 -0.088443 -0.384497 62 77 58
0.226354 0.667070 -0.402139 34 46 36
-0.772002 -0.229352 -0.419090 63 78 59
0.433220 -0.718037 -0.375817 41 49 36
0.538153 -0.448211 -0.382530 51 59 46
-0.184381 -0.019487 -0.400697 67 82 63
0.010493 -0.769004 -0.384038 39 47 34
0.382253 0.760010 -0.362424 37 49 39
-0.181383 -0.505174 -0.393303 46 54 41
0.523162 -0.340280 -0.373629 53 65 49
0.439217 -0.652079 -0.385113 45 53 40
-0.085445 -0.160397 -0.371810 53 66 49
-0.028482 -0.673066 -0.372202 43 51 38
0.622099 0.313298 -0.370203 41 53 39
-0.664072 -0.358269 -0.372471 49 61 47
-0.022485 0.286315 -0.376714 42 51 38
0.265329 -0.283317 -0.356326 59 72 55
-0.427224 0.688056 -0.386666 36 48 38
0.436219 0.397244 -0.370386 38 50 36
-0.523162 0.199371 -0.384288 43 49 42
0.622099 -0.226354 -0.384418 54 67 50
0.166393 -0.466199 -0.397397 42 48 36
0.145406 -0.631093 -0.365959 45 51 39
0.757012 0.442215 -0.372669 40 52 38
0.691054 -0.751015 -0.369921 45 53 40
0.496180 -0.205368 -0.378792 57 70 53
-0.322292 0.505174 -0.347028 40 52 38
-0.205368 0.391248 -0.383638 40 48 35
-0.748017 -0.745019 -0.343359 46 58 43
-0.199371 0.157398 -0.368686 42 52 43
-0.601112 -0.034478 -0.404184 55 69 52
0.022485 0.067456 -0.371798 92 107 86
-0.487186 -0.160397 -0.363094 55 70 51
-0.376257 0.322292 -0.403471 40 47 39
0.046470 0.604110 -0.377105 36 48 34
0.481190 -0.235348 -0.351138 64 77 59
-0.157398 0.685058 -0.374105 35 47 36
0.199371 0.418230 -0.381460 38 50 36
0.529159 0.325290 -0.361457 40 52 38
-0.298308 0.478191 -0.372952 36 48 34
-0.055464 -0.481190 -0.398136 43 51 38
0.376257 -0.676064 -0.372700 47 55 42
0.016489 -0.373259 -0.393378 48 55 40
0.622099 0.529159 -0.403392 20 25 19
-0.193375 0.187379 -0.394462 36 43 35
0.688056 0.091441 -0.375987 47 48 42
-0.382253 0.076451 -0.362167 47 59 45
0.616103 -0.166393 -0.373214 65 78 61
0.610106 0.616103 -0.377368 34 46 36
0.529159 -0.415232 -0.379080 50 62 48
0.163395 -0.694052 -0.404302 43 50 39
0.358269 -0.490184 -0.381261 45 53 40
-0.679062 -0.709043 -0.384987 38 46 33
0.286315 0.436219 -0.387719 38 50 36
0.037476 0.610106 -0.345945 35 47 33
-0.676064 -0.334284 -0.390066 48 56 43
-0.475193 -0.703046 -0.396588 41 49 36
-0.097437 0.508172 -0.362511 36 48 34
0.025484 -0.595116 -0.391132 41 48 36
0.772002 0.733027 -0.362370 34 46 36
-0.043472 0.361267 -0.385809 37 49 35
-0.286315 -0.343278 -0.349482 48 56 43
-0.046470 -0.604110 -0.358245 44 52 39
0.202369 -0.364265 -0.377366 53 61 48
0.574130 0.088443 -0.374872 255 255 255
-0.304304 0.754014 -0.369530 34 46 36
-0.619101 0.583124 -0.380035 16 17 17
0.184381 -0.508172 -0.362543 47 53 41
0.277321 0.403240 -0.378322 41 49 36
0.451209 0.142408 -0.379846 37 44 36
0.187379 0.679062 -0.389970 30 38 30
0.067457 -0.643085 -0.376051 40 48 35
0.541151 0.424226 -0.394636 37 49 35
0.058462 -0.670068 -0.347472 41 49 36
-0.601112 0.187379 -0.365520 41 46 40
0.106431 0.361267 -0.362483 41 52 38
-0.763008 0.334284 -0.397175 39 47 34
0.610106 0.256335 -0.368711 45 53 40
-0.619101 -0.523162 -0.371730 48 56 43
0.352273 -0.733027 -0.387363 45 53 40
0.412234 -0.181383 -0.393898 57 69 53
0.424226 -0.634091 -0.368719 44 52 39
0.298308 0.535155 -0.395163 35 47 33
0.505174 -0.172389 -0.403302 75 85 67
0.136412 0.559139 -0.387269 39 47 34
-0.517166 0.352273 -0.365612 40 52 38
-0.460203 -0.763008 -0.410257 41 49 36
-0.751015 -0.682060 -0.371814 66 81 62
-0.097437 -0.148404 -0.407554 57 70 53
-0.214362 -0.706044 -0.395007 38 46 33
0.115426 0.253337 -0.379843 39 46 38
0.307302 0.658075 -0.384063 34 46 33
-0.067456 -0.256335 -0.353679 46 54 39
-0.238346 0.247340 -0.334493 36 44 33
-0.451209 0.244342 -0.396090 37 44 37
-0.316296 0.451209 -0.381865 36 48 34
-0.121422 0.040474 -0.383639 60 74 56
-0.604110 -0.655077 -0.387261 44 52 39
-0.331286 0.271325 -0.383202 33 45 30
0.685058 -0.088443 -0.377121 55 68 53
-0.283317 0.355271 -0.377043 46 53 41
-0.601112 0.277321 -0.381918 41 48 40
0.475193 0.037476 -0.370508 59 72 54
-0.136412 0.055464 -0.408319 54 68 51
-0.295309 -0.724033 -0.358296 40 48 35
-0.562137 0.391248 -0.381536 42 52 39
0.763008 0.646083 -0.352994 36 48 38
0.661073 -0.277321 -0.387650 56 69 52
-0.106431 -0.319294 -0.398851 48 53 42
0.394246 0.619101 -0.357200 33 45 35
-0.472195 -0.430222 -0.371508 47 55 43
0.214362 0.544149 -0.391347 36 47 38
-0.010493 -0.154400 -0.367900 54 67 50
-0.469197 0.004497 -0.395711 88 101 81
0.628095 0.034478 -0.409391 255 255 255
-0.466199 -0.052466 -0.376849 76 91 70
0.397244 0.736025 -0.369111 37 49 39
-0.409236 -0.667070 -0.366733 44 52 39
0.001499 0.331286 -0.389501 37 49 35
-0.433220 -0.376257 -0.363993 44 56 42
0.064458 0.400242 -0.383799 37 49 35
0.040474 0.319294 -0.377201 44 52 38
0.712041 0.673066 -0.388086 31 44 34
-0.274323 -0.454207 -0.373531 45 53 38
-0.346277 0.151402 -0.385243 255 255 255
0.742021 -0.295309 -0.381009 49 61 47
-0.727031 0.751015 -0.364995 33 45 35
0.421228 0.196373 -0.413261 39 46 38
-0.379255 0.172389 -0.361776 255 255 255
-0.631093 -0.361267 -0.367683 49 61 47
-0.115426 -0.640087 -0.412995 45 53 40
0.580126 0.355271 -0.372934 39 51 37
-0.460203 -0.409236 -0.349272 50 58 45
-0.730029 0.757012 -0.361425 32 42 33
0.073453 0.760010 -0.376579 33 45 35
-0.160397 -0.754013 -0.387411 39 46 38
0.064458 0.328288 -0.373490 41 53 39
0.538153 0.472195 -0.353397 36 48 34
-0.154400 0.232350 -0.385935 43 50 42
0.472195 0.469197 -0.366121 37 49 35
-0.133414 0.685058 -0.384641 35 47 37
-0.073453 0.514168 -0.373050 36 48 34
-0.307302 -0.007495 -0.393777 79 92 74
-0.136412 -0.604110 -0.396804 40 48 35
-0.667070 0.652079 -0.373423 36 48 34
0.340280 0.256335 -0.370328 43 51 38
-0.331286 -0.574130 -0.371818 44 56 42
-0.457205 0.124420 -0.392625 255 255 255
0.121422 -0.634091 -0.380897 42 48 36
-0.475193 0.706044 -0.383139 41 53 40
-0.079449 -0.502176 -0.370549 44 52 39
-0.574130 -0.517166 -0.381409 44 56 42
-0.655077 -0.067457 -0.405404 70 85 66
-0.259333 0.541151 -0.373437 35 47 37
-0.199371 0.244342 -0.390812 43 50 41
0.352273 -0.460203 -0.359282 45 53 40
-0.667070 -0.238346 -0.366618 75 89 72
-0.103433 -0.175387 -0.415819 54 67 50
-0.115426 -0.217360 -0.373278 52 65 48
0.247340 0.436219 -0.370538 39 51 37
-0.508172 0.469197 -0.371302 36 47 36
-0.424226 0.166393 -0.371688 255 255 255
-0.664072 0.025484 -0.380807 56 70 53
0.511170 -0.769004 -0.383244 42 50 38
-0.772002 -0.304304 -0.383010 54 68 51
-0.763008 0.430222 -0.400696 36 48 34
0.088443 0.094439 -0.362372 77 93 73
0.706044 -0.379255 -0.386343 48 60 46
0.775000 -0.196373 -0.364665 47 55 42
-0.598114 0.664072 -0.369670 34 45 35
0.490184 -0.061460 -0.383110 46 59 42
-0.136412 0.481190 -0.383730 37 49 35
-0.412234 -0.349275 -0.387947 48 60 46
-0.763008 0.733027 -0.379638 33 40 32
-0.454207 -0.682060 -0.379510 44 52 39
0.409236 0.520164 -0.388114 35 47 33
-0.547147 -0.409236 -0.366885 47 59 45
0.763008 -0.010493 -0.409578 255 255 255
0.592118 -0.430222 -0.389696 49 61 47
-0.085445 -0.091441 -0.357670 58 71 53
-0.481190 0.187379 -0.368184 255 255 255
-0.706044 0.406238 -0.364267 37 49 35
0.754013 0.283317 -0.391593 40 52 38
-0.112427 -0.130416 -0.355718 55 68 50
0.145406 0.466199 -0.384331 36 48 34
-0.742021 0.154400 -0.400675 41 48 40
-0.646083 -0.505174 -0.397206 45 57 43
0.517166 0.730029 -0.367483 34 46 36
0.337282 -0.646083 -0.370713 45 53 40
-0.694052 0.430222 -0.396991 37 49 35
-0.130416 0.310300 -0.400323 40 53 38
-0.220358 0.232350 -0.364794 41 49 36
0.313298 0.400242 -0.399299 38 50 36
0.463201 -0.694052 -0.400749 44 52 39
0.652079 -0.034478 -0.393001 89 108 88
-0.763008 0.574130 -0.369409 35 47 37
-0.499178 -0.208366 -0.392250 56 69 52
-0.175387 -0.586122 -0.414316 42 50 37
-0.238346 0.121422 -0.406037 81 96 76
0.031480 -0.568133 -0.394420 47 55 42
-0.298308 -0.445213 -0.361243 52 67 48
0.229352 -0.277321 -0.377815 48 61 44
-0.616103 -0.307302 -0.373224 65 78 60
-0.136412 0.127418 -0.369957 52 65 48
-0.730029 -0.622099 -0.385652 42 50 37
-0.586122 0.238346 -0.385960 42 49 42
-0.049468 0.151402 -0.371252 43 55 41
-0.133414 0.514168 -0.395764 37 48 33
-0.157398 0.754014 -0.379392 35 47 37
-0.241344 -0.442215 -0.380543 45 53 40
0.496180 -0.535155 -0.353615 46 54 41
-0.466199 -0.298308 -0.378579 50 63 46
0.676064 -0.175387 -0.374302 63 76 58
-0.001499 -0.451209 -0.376095 45 53 40
0.424226 0.550145 -0.380493 35 47 33
0.643085 0.406238 -0.370952 37 49 35
0.145406 -0.619101 -0.389652 43 51 38
-0.502176 -0.346277 -0.369751 45 57 43
-0.730029 -0.685058 -0.375879 45 53 40
0.070455 -0.532157 -0.388370 47 53 41
-0.670068 -0.595116 -0.386658 44 52 39
0.718037 0.418230 -0.387891 40 52 38
-0.766006 0.286315 -0.374315 40 47 39
-0.124420 0.238346 -0.388520 43 51 38
0.145406 -0.706044 -0.367306 39 46 34
-0.250338 0.334284 -0.388704 42 50 37
0.676064 -0.061460 -0.372563 47 55 46
0.523162 0.244342 -0.396324 41 53 39
-0.196373 -0.247340 -0.358746 50 63 46
-0.388250 0.373259 -0.364383 38 45 36
-0.055464 0.712041 -0.378454 37 45 33
0.256335 0.562137 -0.372755 33 45 35
0.724033 0.712041 -0.372557 34 46 36
0.694052 -0.586122 -0.362013 48 56 43
-0.772002 -0.349275 -0.392825 45 58 41
-0.670068 0.271325 -0.376437 38 50 36
0.754013 -0.424226 -0.387054 50 62 48
-0.730029 0.508172 -0.405838 36 48 34
-0.418230 -0.427224 -0.380848 50 63 46
0.304304 0.523162 -0.397032 36 48 34
0.349275 0.124420 -0.390220 255 255 255
0.064458 0.319294 -0.384731 44 52 39
0.325290 0.349275 -0.383147 38 50 36
0.076451 -0.103433 -0.360980 51 63 49
-0.697050 0.121422 -0.401361 37 44 36
-0.748017 0.646083 -0.364229 34 46 36
0.394246 -0.343278 -0.362116 50 63 46
-0.514168 0.265329 -0.390006 43 55 41
-0.127418 0.454207 -0.358281 37 49 35
0.754013 0.454207 -0.384644 40 52 38
-0.550145 0.604110 -0.374672 36 48 34
0.448211 -0.667070 -0.391767 45 53 40
-0.115426 0.646083 -0.380267 35 47 33
0.535155 0.202369 -0.381660 42 54 40
-0.154400 0.334284 -0.391284 41 49 36
0.772002 -0.274323 -0.363474 43 51 41
0.496180 -0.415232 -0.395338 53 61 48
-0.142408 0.205368 -0.378720 41 53 39
-0.628095 0.022485 -0.412222 65 78 60
0.607108 0.595116 -0.402604 34 46 35
0.304304 -0.772002 -0.377355 39 46 38
0.064458 -0.724033 -0.395566 41 49 36
-0.403240 0.520164 -0.360825 37 49 39
-0.376257 0.775000 -0.360215 34 46 36
-0.238346 0.658075 -0.391441 34 46 37
-0.016489 -0.607108 -0.380333 46 52 40
0.616103 0.754014 -0.341499 30 42 32
0.514168 -0.223356 -0.373505 56 69 53
-0.436219 -0.280319 -0.392460 51 63 49
-0.613104 -0.325290 -0.394073 45 57 43
-0.172389 -0.424226 -0.381918 46 54 44
0.625097 0.718037 -0.405360 33 45 35
0.097437 0.289313 -0.359007 44 52 40
-0.565135 0.634091 -0.398451 33 45 35
0.721035 -0.220358 -0.396655 58 71 54
0.091441 -0.553143 -0.362751 47 53 41
0.763008 -0.343278 -0.384371 42 54 44
-0.688056 -0.652079 -0.377358 38 50 40
-0.061460 -0.154400 -0.365909 60 73 56
0.058462 -0.772002 -0.389623 40 47 35
-0.187379 -0.511170 -0.378334 46 54 41
0.652079 0.169391 -0.374774 45 53 40
0.106431 -0.358269 -0.389384 45 51 39
-0.079449 0.499178 -0.375836 36 48 34
-0.688056 0.049468 -0.376934 45 53 40
0.328288 -0.763008 -0.372306 42 50 37
-0.478191 -0.409236 -0.397991 45 57 43
-0.490184 0.391248 -0.418765 41 50 38
0.646083 0.217360 -0.363670 43 53 42
0.109429 0.202369 -0.380176 255 255 255
-0.472195 0.079449 -0.395878 115 136 109
-0.715039 0.010493 -0.380309 53 66 49
-0.640087 -0.142408 -0.373647 59 74 55
-0.637089 0.175387 -0.391688 35 38 34
0.133414 -0.343278 -0.384901 45 51 39
-0.391248 -0.559139 -0.401466 49 58 44
0.118424 0.643085 -0.379079 34 46 32
0.220358 0.394246 -0.399708 38 50 36
0.598114 -0.091441 -0.391624 75 88 70
0.400242 -0.310300 -0.361520 49 62 46
0.451209 0.283317 -0.391414 40 52 38
-0.139410 0.328288 -0.380802 41 48 40
0.004497 0.280319 -0.403945 42 53 40
0.181383 -0.730029 -0.369629 36 45 35
0.685058 -0.601112 -0.369161 47 55 42
-0.271325 0.640087 -0.367121 35 47 34
0.205368 -0.442215 -0.354298 44 55 41
0.109429 0.160397 -0.362817 255 255 255
0.718037 0.232350 -0.357513 46 54 41
0.328288 -0.619101 -0.393457 45 53 40
0.499178 -0.160397 -0.372800 80 95 74
-0.466199 0.676064 -0.361801 39 51 41
0.550145 -0.340280 -0.360208 53 66 49
0.556141 0.022485 -0.385172 53 60 54
-0.487186 0.445213 -0.385498 37 48 40
-0.763008 0.460203 -0.378150 36 48 38
-0.118424 -0.178385 -0.389006 55 69 52
-0.736025 -0.433220 -0.389638 51 64 47
0.724033 -0.616103 -0.390549 52 60 47
-0.061460 0.676064 -0.392325 38 45 37
-0.358269 -0.238346 -0.399286 47 60 43
0.715039 -0.715039 -0.381888 42 49 39
0.370261 -0.004497 -0.357672 72 84 65
0.184381 0.772002 -0.382449 33 45 35
-0.541151 -0.559139 -0.390444 46 54 41
0.757012 -0.064458 -0.380164 46 53 45
0.214362 0.370261 -0.367855 41 51 37
-0.268327 -0.301306 -0.376365 47 59 45
0.265329 0.688056 -0.391777 34 46 36
-0.217360 -0.079449 -0.372710 61 74 56
-0.580126 -0.700048 -0.357665 43 51 38
-0.331286 -0.421228 -0.381509 48 56 43
-0.064458 0.049468 -0.367852 67 82 62
-0.601112 -0.049468 -0.373859 65 79 60
-0.580126 -0.406238 -0.393526 48 60 46
-0.370261 -0.625097 -0.390088 44 52 39
-0.088443 -0.088443 -0.394066 57 70 52
-0.388250 0.376257 -0.383567 36 44 32
-0.079449 -0.301306 -0.377889 51 59 46
0.430222 -0.721035 -0.369337 42 50 37
0.439217 0.373259 -0.378610 38 50 36
0.484188 -0.034478 -0.378878 67 79 62
-0.601112 -0.640087 -0.413834 45 53 40
0.409236 0.643085 -0.375807 34 46 32
-0.241344 -0.271325 -0.371174 52 60 47
0.397244 -0.412234 -0.348749 45 53 40
0.403240 -0.223356 -0.409683 55 68 51
0.607108 0.064458 -0.365852 255 255 255
-0.688056 -0.244342 -0.376699 49 61 47
0.034478 -0.148404 -0.376333 53 66 49
0.484188 0.667070 -0.355918 33 45 35
0.199371 0.682060 -0.392118 37 43 35
0.346277 0.451209 -0.360822 41 49 36
0.739023 -0.613104 -0.392029 49 57 44
-0.289313 0.559139 -0.372454 40 52 37
-0.277321 -0.058462 -0.373283 70 83 65
-0.562137 0.748017 -0.398342 33 45 35
0.742021 0.034478 -0.396645 255 255 255
-0.721035 -0.769004 -0.387648 52 65 48
0.604110 0.595116 -0.376391 34 46 32
-0.004497 -0.658075 -0.406874 43 51 38
-0.430222 -0.424226 -0.388497 53 66 49
0.073453 -0.538153 -0.366201 48 54 42
0.088443 -0.643085 -0.377789 40 48 35
-0.055464 0.097437 -0.385127 68 83 64
-0.718037 -0.019487 -0.382239 62 76 59
-0.037476 0.727031 -0.364885 35 47 37
-0.058462 -0.523162 -0.382617 45 53 40
0.400242 0.556141 -0.378373 35 47 33
0.589120 -0.235348 -0.387121 58 71 54
-0.373259 0.601112 -0.352592 36 48 34
-0.526161 -0.442215 -0.378772 45 57 43
-0.508172 -0.427224 -0.377592 48 58 44
0.070455 0.595116 -0.368300 36 48 34
0.115426 0.124420 -0.391439 88 101 81
-0.676064 0.610106 -0.375015 35 47 33
-0.487186 0.061460 -0.377655 114 132 106
-0.613104 -0.199371 -0.369894 59 74 57
0.106431 -0.589120 -0.406538 45 53 40
-0.142408 0.298308 -0.383661 41 53 39
0.556141 -0.583124 -0.386978 52 65 48
0.064458 0.103433 -0.390157 131 147 120
0.070455 -0.604110 -0.378153 42 48 36
-0.373259 -0.637089 -0.372345 45 53 40
-0.493182 -0.712041 -0.388141 38 50 34
0.367263 0.373259 -0.389705 43 51 38
0.274323 -0.358269 -0.388660 45 54 40
0.277321 0.412234 -0.377565 41 49 36
0.658075 0.244342 -0.402540 46 54 41
-0.073453 0.361267 -0.372244 36 48 34
0.559139 -0.313298 -0.377149 54 67 50
0.142408 0.760010 -0.371075 34 46 36
0.457205 -0.118424 -0.403352 48 61 43
-0.670068 0.436219 -0.390015 37 49 39
0.331286 0.385251 -0.401570 38 50 36
-0.523162 -0.265329 -0.387042 48 60 46
-0.310300 -0.613104 -0.375415 42 47 39
0.586122 -0.667070 -0.358609 48 56 43
-0.337282 0.598114 -0.400419 36 48 34
0.358269 -0.403240 -0.388095 47 54 42
-0.259333 0.553143 -0.374650 35 47 33
-0.718037 -0.088443 -0.374333 69 84 65
0.406238 -0.412234 -0.380275 46 55 42
0.595116 -0.523162 -0.382766 48 60 46
0.601112 0.637089 -0.352065 32 39 31
-0.427224 0.112427 -0.358832 90 81 81
0.763008 -0.139410 -0.402618 85 98 80
0.004497 0.112427 -0.375477 89 104 83
-0.388250 0.619101 -0.360264 37 49 37
0.460203 0.124420 -0.400994 42 49 40
0.508172 0.400242 -0.380540 37 49 35
0.682060 -0.586122 -0.363076 49 57 44
-0.196373 0.463201 -0.367894 40 52 39
0.148404 -0.667070 -0.392528 41 47 35
-0.073453 -0.559139 -0.353122 44 52 39
-0.682060 0.091441 -0.380652 37 44 36
0.061460 -0.613104 -0.402548 41 47 35
-0.361267 -0.277321 -0.382875 44 56 42
0.691054 0.085445 -0.369693 87 85 84
-0.004497 -0.010493 -0.370551 69 82 64
-0.643085 0.562137 -0.362918 31 38 30
0.178385 0.517166 -0.380292 36 48 34
-0.127418 -0.640087 -0.374932 41 49 35
-0.697050 -0.373259 -0.382318 49 62 45
-0.511170 0.196373 -0.382483 44 47 40
-0.181383 -0.352273 -0.411605 47 55 42
0.145406 0.568133 -0.363940 35 46 32
0.379255 0.370261 -0.383960 41 51 38
0.517166 -0.391248 -0.395232 50 61 47
0.289313 0.445213 -0.414402 38 50 36
0.004497 0.292311 -0.363806 42 53 40
0.475193 -0.079449 -0.375100 45 57 42
-0.712041 -0.049468 -0.399891 47 61 46
0.508172 0.292311 -0.359754 40 52 38
0.517166 -0.394246 -0.369094 50 62 48
0.016489 0.631093 -0.371910 35 47 32
-0.667070 0.166393 -0.401933 36 43 35
-0.247340 -0.496180 -0.368106 45 53 39
-0.271325 0.484188 -0.386410 35 47 33
0.148404 -0.598114 -0.372521 45 53 40
-0.463201 0.526161 -0.366959 36 48 34
0.748017 0.196373 -0.377038 44 52 39
0.256335 0.682060 -0.358740 34 46 35
-0.691054 -0.409236 -0.385496 49 61 46
0.241344 -0.754013 -0.390376 39 46 38
-0.187379 0.175387 -0.371644 45 52 44
-0.307302 -0.067457 -0.391564 62 77 58
0.640087 0.235348 -0.364780 42 49 36
-0.091441 -0.718037 -0.362869 47 55 42
-0.352273 -0.700048 -0.375174 42 50 39
0.700048 -0.445213 -0.415377 53 61 48
0.532157 -0.586122 -0.383255 39 46 37
-0.271325 0.601112 -0.377998 34 46 32
-0.421228 -0.070455 -0.390493 55 69 52
-0.691054 -0.688056 -0.379198 39 47 34
0.499178 -0.577128 -0.374471 49 57 44
-0.721035 -0.064458 -0.368214 60 73 56
-0.289313 -0.535155 -0.391809 44 56 42
0.052466 0.091441 -0.381649 114 130 104
-0.028482 0.208366 -0.377508 41 48 40
0.151402 -0.412234 -0.382877 50 58 45
0.472195 -0.319294 -0.369992 52 65 48
0.757012 -0.640087 -0.391414 49 57 44
-0.565135 0.037476 -0.367892 95 110 87
0.022485 -0.442215 -0.370044 46 54 41
0.589120 0.640087 -0.406094 32 36 29
0.772002 -0.178385 -0.361831 56 68 53
-0.043472 -0.106431 -0.411113 58 71 54
0.172389 -0.322292 -0.386873 47 55 42
0.007495 0.265329 -0.363977 40 47 39
-0.610106 0.043472 -0.371336 70 83 65
0.241344 -0.322292 -0.371219 45 53 40
0.265329 -0.334284 -0.400091 51 59 46
0.640087 -0.184381 -0.350226 63 76 59
0.361267 -0.160397 -0.389745 52 66 49
0.598114 -0.220358 -0.381707 59 72 55
-0.133414 -0.274323 -0.406935 46 54 42
0.445213 0.352273 -0.393438 40 52 38
0.670068 -0.127418 -0.378656 64 77 59
0.103433 -0.304304 -0.386212 51 58 43
0.661073 0.640087 -0.376989 33 45 35
0.421228 0.481190 -0.375983 50 56 49
-0.442215 -0.031480 -0.395623 71 84 67
-0.514168 0.142408 -0.389792 255 255 255
0.511170 0.118424 -0.381965 42 49 41
0.352273 0.775000 -0.413927 37 49 39
-0.727031 0.463201 -0.398401 37 49 39
0.163395 -0.268327 -0.380325 56 69 52
0.055464 0.106431 -0.366574 129 148 118
0.571132 -0.016489 -0.360475 91 104 86
0.736025 0.334284 -0.360094 40 52 38
-0.574130 -0.364265 -0.409775 48 60 46
0.352273 -0.013491 -0.374988 49 61 49
0.217360 0.334284 -0.384625 44 52 39
0.229352 0.724033 -0.385669 34 46 36
-0.670068 0.010493 -0.371855 57 72 55
-0.034478 0.712041 -0.357939 35 47 37
-0.700048 -0.430222 -0.385574 48 60 46
0.745019 -0.655077 -0.385831 46 54 41
-0.193375 -0.592118 -0.376777 39 47 34
-0.592118 0.736025 -0.365448 31 43 33
-0.118424 0.316296 -0.402246 37 49 35
0.463201 -0.631093 -0.379152 46 54 41
-0.130416 -0.031480 -0.364776 65 80 61
0.382253 0.370261 -0.406543 40 51 37
-0.760010 -0.232350 -0.375316 65 80 61
0.676064 0.511170 -0.392936 33 40 33
0.568133 0.214362 -0.393764 40 52 38
0.295309 -0.571132 -0.388736 44 52 39
-0.649081 -0.730029 -0.382220 39 47 39
-0.280319 0.241344 -0.371926 43 50 42
-0.484188 0.262331 -0.370299 45 52 44
0.253337 -0.367263 -0.389034 45 53 40
-0.667070 0.406238 -0.416125 39 49 37
0.097437 -0.397244 -0.366135 46 52 40
-0.592118 0.340280 -0.377786 40 50 37
0.541151 0.304304 -0.381320 40 52 38
-0.502176 0.274323 -0.386205 44 51 43
0.613104 -0.205368 -0.370832 60 73 56
-0.424226 -0.724033 -0.405398 43 51 38
0.688056 -0.424226 -0.379319 53 61 48
-0.379255 -0.067457 -0.393967 67 80 65
0.073453 0.100435 -0.371483 145 164 133
-0.700048 0.295309 -0.391155 40 48 35
-0.538153 0.718037 -0.376432 35 47 37
0.739023 0.307302 -0.358589 38 49 35
-0.397244 -0.595116 -0.393641 45 53 40
-0.058462 0.139410 -0.403257 47 59 45
0.433220 -0.379255 -0.388341 48 61 44
-0.715039 -0.613104 -0.379933 37 49 35
0.346277 -0.532157 -0.384236 44 52 39
0.610106 0.481190 -0.389001 36 44 32
0.724033 0.304304 -0.392463 38 50 36
-0.631093 0.523162 -0.377001 18 19 18
-0.085445 -0.463201 -0.370346 42 50 37
0.583124 0.718037 -0.375339 31 43 33
0.742021 -0.472195 -0.396004 51 61 48
0.499178 0.466199 -0.382298 37 49 35
0.532157 0.076451 -0.396121 43 53 45
0.112427 0.472195 -0.370367 37 47 35
0.253337 0.322292 -0.382839 40 52 38
-0.622099 0.589120 -0.377813 29 29 27
0.397244 -0.289313 -0.378554 51 64 47
-0.286315 0.760010 -0.350589 34 46 36
0.232350 -0.649081 -0.392151 43 51 38
-0.148404 0.511170 -0.389320 36 48 34
0.571132 0.310300 -0.378417 40 52 38
0.052466 0.121422 -0.394197 130 149 122
0.739023 0.448211 -0.373625 38 50 36
-0.142408 -0.157398 -0.339741 55 68 51
-0.292311 -0.391248 -0.400496 48 55 42
-0.775000 -0.295309 -0.378893 55 68 51
-0.124420 0.589120 -0.389607 37 49 35
0.196373 0.715039 -0.391896 34 46 36
-0.643085 0.142408 -0.408518 34 39 32
-0.721035 -0.457205 -0.370669 47 59 45
-0.289313 0.268327 -0.349409 40 47 39
-0.124420 -0.484188 -0.388301 44 52 39
-0.445213 0.703046 -0.355559 39 51 36
-0.073453 0.160397 -0.381875 44 52 39
-0.370261 -0.550145 -0.393900 53 65 51
-0.595116 0.643085 -0.367250 32 41 32
0.733027 0.769004 -0.387208 24 35 25
-0.397244 -0.205368 -0.378176 55 69 52
0.376257 0.361267 -0.359914 43 51 38
0.061460 0.004497 -0.401630 82 95 77
-0.268327 -0.619101 -0.367477 46 54 41
0.445213 0.526161 -0.386639 35 47 33
-0.259333 0.184381 -0.391495 39 45 46
0.517166 0.682060 -0.386813 33 45 35
-0.190377 0.259333 -0.357563 43 50 42
0.679062 0.088443 -0.392044 53 56 57
0.298308 0.706044 -0.361375 35 47 37
0.547147 -0.427224 -0.382065 49 61 47
-0.628095 0.286315 -0.374813 41 49 36
0.064458 0.598114 -0.376813 36 48 35
-0.046470 0.520164 -0.422763 36 48 34
-0.085445 0.733027 -0.400895 35 47 37
-0.571132 -0.340280 -0.369189 57 70 55
-0.538153 -0.262331 -0.395660 48 60 46
-0.187379 0.598114 -0.387171 76 77 75
0.391248 0.208366 -0.377464 38 45 37
0.241344 -0.514168 -0.390406 47 55 42
0.049468 0.493182 -0.378296 37 49 35
-0.460203 0.016489 -0.350168 79 92 72
-0.394246 0.094439 -0.380600 150 168 134
0.610106 0.406238 -0.392677 36 48 34
-0.607108 -0.046470 -0.377587 66 79 61
0.322292 0.550145 -0.402778 36 48 36
-0.454207 -0.316296 -0.390037 55 67 53
0.571132 -0.394246 -0.396836 49 61 47
-0.031480 0.301306 -0.397115 41 48 35
-0.325290 -0.127418 -0.382265 55 69 52
0.283317 -0.427224 -0.380622 45 50 42
0.580126 -0.178385 -0.398986 61 74 57
-0.682060 -0.145406 -0.388971 60 75 56
-0.568133 0.574130 -0.363544 33 40 32
-0.685058 -0.670068 -0.380642 40 47 39
-0.646083 -0.403240 -0.383261 49 61 47
-0.514168 -0.094439 -0.368890 56 68 54
0.082447 -0.121422 -0.421459 55 68 51
-0.055464 -0.502176 -0.376581 44 52 39
-0.070455 -0.256335 -0.416369 47 55 40
-0.055464 0.661074 -0.368467 37 47 33
-0.388250 -0.634091 -0.380303 44 52 39
0.397244 0.508172 -0.369490 36 48 34
0.298308 0.742021 -0.372744 35 47 37
0.511170 0.460203 -0.338471 36 48 34
0.478192 -0.706044 -0.388196 44 52 39
-0.775000 0.007495 -0.376064 51 62 46
-0.148404 0.025484 -0.385083 66 81 62
-0.460203 0.427224 -0.399168 42 54 40
-0.271325 0.637089 -0.392399 35 47 33
0.496180 -0.475193 -0.378103 50 58 45
0.463201 0.727031 -0.383148 39 51 40
-0.007495 0.142408 -0.384687 45 57 43
-0.331286 -0.244342 -0.348517 49 62 45
0.676064 -0.097437 -0.372431 50 62 48
0.535155 -0.331286 -0.389626 51 64 47
-0.058462 0.268327 -0.387886 42 50 41
-0.634091 0.088443 -0.387889 34 38 32
0.604110 -0.700048 -0.371545 46 54 41
0.025484 -0.718037 -0.368425 40 48 35
0.046470 -0.319294 -0.396287 45 50 38
0.022485 0.436219 -0.374665 37 49 35
-0.553143 -0.754013 -0.372586 41 49 36
0.370261 -0.466199 -0.386135 47 55 42
-0.190377 -0.493182 -0.391502 45 53 40
-0.202369 -0.706044 -0.381921 39 46 38
-0.223356 0.079449 -0.380697 81 99 76
0.529159 -0.454207 -0.377025 51 59 46
-0.325290 -0.154400 -0.413294 55 69 52
-0.313298 0.289313 -0.352880 35 47 33
0.736025 0.685058 -0.401407 35 47 35
0.682060 -0.436219 -0.382684 53 66 50
0.235348 0.337282 -0.382899 43 51 38
0.040474 -0.634091 -0.373697 41 48 35
-0.433220 -0.439217 -0.369038 48 60 46
-0.322292 0.058462 -0.376988 82 95 77
0.445213 0.463201 -0.381082 35 47 33
0.748017 0.763008 -0.374429 36 43 35
0.673066 -0.538153 -0.392301 47 58 44
-0.412234 0.661074 -0.360980 37 49 39
0.634091 0.064458 -0.379522 255 255 255
0.052466 0.304304 -0.374569 42 53 39
0.493182 0.172389 -0.377996 44 51 43
0.289313 -0.685058 -0.371653 44 52 39
0.505174 0.130416 -0.384933 45 52 44
-0.529159 0.388250 -0.387909 41 48 40
-0.412234 -0.010493 -0.394985 76 89 71
-0.604110 -0.403240 -0.417169 49 61 47
0.760010 -0.052466 -0.367656 35 39 39
0.229352 0.640087 -0.356988 35 47 37
-0.496180 -0.733027 -0.334619 40 48 34
-0.061460 0.400242 -0.372822 36 48 34
-0.562137 0.322292 -0.379764 42 54 40
0.688056 0.424226 -0.388436 37 49 35
-0.676064 -0.586122 -0.357190 45 53 40
-0.418230 -0.658075 -0.390668 42 50 37
-0.328288 -0.493182 -0.384878 44 52 39
0.772002 -0.583124 -0.382530 50 58 45
-0.517166 -0.046470 -0.391220 62 76 58
0.031480 0.259333 -0.394570 40 47 39
0.055464 0.286315 -0.377483 44 52 39
0.145406 -0.472195 -0.371343 44 51 39
0.016489 -0.757012 -0.370688 39 46 38
0.109429 0.484188 -0.410641 35 47 33
0.361267 -0.202369 -0.380404 54 67 50
0.721035 0.220358 -0.374639 39 47 34
0.745019 -0.082447 -0.372032 69 82 64
-0.139410 0.370261 -0.392782 37 49 35
0.262331 0.490184 -0.395860 39 47 34
-0.034478 0.688056 -0.388446 35 47 37
0.574130 -0.154400 -0.345842 63 76 59
0.454207 0.562137 -0.355543 36 48 34
0.574130 0.397244 -0.355619 38 50 36
-0.463201 0.265329 -0.397843 44 52 39
-0.748017 -0.028482 -0.391704 73 88 67
0.016489 0.610106 -0.370692 40 46 34
-0.451209 -0.634091 -0.384300 46 54 42
-0.091441 0.544149 -0.372630 36 48 38
-0.628095 0.478191 -0.391337 37 49 35
0.631093 0.088443 -0.388657 255 255 255
-0.661074 0.328288 -0.369764 42 50 37
-0.499178 0.448211 -0.380424 36 48 34
-0.076451 0.172389 -0.396555 40 52 38
-0.697050 0.358269 -0.388828 37 49 35
-0.139410 0.211364 -0.371734 39 51 37
-0.196373 -0.364265 -0.351112 49 57 44
0.502176 -0.181383 -0.338664 73 85 69
-0.277321 -0.721035 -0.402032 39 47 34
0.235348 0.319294 -0.358303 44 52 39
-0.679062 0.745019 -0.382064 37 44 36
0.577128 0.196373 -0.379822 33 41 30
0.553143 0.022485 -0.351991 51 58 52
-0.622099 0.331286 -0.362642 38 50 36
0.508172 -0.025484 -0.383966 57 70 53
0.418230 -0.292311 -0.394887 54 67 50
-0.400242 -0.205368 -0.372467 55 69 52
-0.310300 -0.676064 -0.370813 42 53 39
-0.688056 0.286315 -0.390571 39 50 36
0.022485 -0.262331 -0.362843 47 55 42
0.379255 -0.301306 -0.389680 49 61 47
-0.127418 -0.757012 -0.383812 39 47 34
-0.067456 0.043472 -0.405145 48 57 44
0.031480 0.028482 -0.366175 87 100 82
-0.283317 -0.109429 -0.355273 54 68 51
0.601112 0.643085 -0.363353 14 15 13
-0.394246 -0.739023 -0.374644 41 49 36
-0.676064 0.112427 -0.385719 29 30 26
0.235348 0.406238 -0.399636 38 50 36
0.490184 -0.262331 -0.394889 69 82 64
-0.172389 -0.091441 -0.349827 58 72 55
-0.244342 -0.064458 -0.385049 62 75 58
0.043472 -0.007495 -0.381689 73 86 68
-0.004497 0.763008 -0.386907 33 45 35
-0.490184 -0.385251 -0.398347 49 61 47
-0.385251 -0.691054 -0.376319 42 50 37
-0.373259 0.538153 -0.363243 36 48 39
0.070455 -0.133414 -0.391732 52 65 48
0.400242 -0.193375 -0.390053 51 64 47
0.364265 -0.262331 -0.378438 52 65 48
0.595116 0.193375 -0.387905 42 54 40
-0.484188 0.535155 -0.400028 35 47 33
-0.217360 0.682060 -0.399951 36 44 34
0.028482 0.040474 -0.384114 78 94 75
-0.574130 -0.229352 -0.369484 53 64 51
0.133414 -0.544149 -0.363914 46 54 41
-0.463201 -0.175387 -0.394721 49 61 47
-0.103433 -0.517166 -0.387210 43 51 38
0.319294 -0.715039 -0.402830 42 50 37
-0.406238 0.022485 -0.395403 99 114 93
0.418230 -0.253337 -0.391044 55 68 51
0.730029 -0.187379 -0.363162 51 59 46
-0.754014 -0.433220 -0.380738 47 59 45
0.730029 -0.673066 -0.382980 46 54 41
-0.457205 -0.241344 -0.397172 50 63 46
-0.430222 0.427224 -0.380808 42 54 40
-0.070455 -0.736025 -0.395793 40 48 37
0.367263 -0.436219 -0.364651 48 56 43
-0.691054 0.412234 -0.361453 37 49 35
0.490184 -0.754013 -0.347356 40 47 39
0.205368 -0.751015 -0.389374 41 52 38
0.013491 -0.007495 -0.387296 71 84 66
0.589120 -0.331286 -0.379386 51 64 48
-0.646083 0.649081 -0.365970 34 46 36
0.409236 -0.634091 -0.354981 42 50 37
-0.766006 0.643085 -0.396246 34 46 36
-0.757012 -0.760010 -0.369660 43 51 38
0.031480 0.403240 -0.366267 37 49 35
-0.301306 -0.628095 -0.393089 43 51 38
-0.499178 -0.100435 -0.360252 60 73 55
0.769004 0.613104 -0.390225 36 48 38
-0.148404 0.700048 -0.346041 35 47 37
-0.469197 0.559139 -0.381175 35 47 33
-0.745019 -0.553143 -0.361521 45 57 43
0.202369 0.715039 -0.381688 34 46 36
0.538153 0.745019 -0.364489 34 46 36
0.646083 -0.013491 -0.364538 50 58 46
-0.148404 -0.634091 -0.366415 38 45 37
0.334284 0.580126 -0.359724 35 47 37
-0.730029 -0.055464 -0.392765 70 86 69
0.775000 -0.742021 -0.378235 44 56 42
0.202369 -0.649081 -0.377266 43 51 38
-0.082447 0.436219 -0.385555 36 48 34
0.397244 0.685058 -0.368943 35 47 38
-0.103433 -0.553143 -0.358764 43 51 38
0.448211 -0.133414 -0.367257 49 61 47
0.460203 -0.685058 -0.375664 45 53 40
0.049468 0.130416 -0.337809 89 102 81
-0.226354 -0.409236 -0.402173 61 73 59
-0.001499 0.067456 -0.374993 79 92 74
-0.253337 0.355271 -0.374980 40 47 39
-0.130416 0.559139 -0.358560 37 49 35
0.145406 0.655077 -0.359164 36 48 38
-0.604110 0.370261 -0.425322 44 52 39
-0.556141 -0.607108 -0.382803 45 53 40
0.382253 -0.193375 -0.357400 52 65 48
-0.265329 0.160397 -0.394644 221 235 239
-0.640087 0.436219 -0.397453 40 53 37
0.079449 -0.301306 -0.374574 53 61 47
0.598114 -0.463201 -0.401517 52 60 47
-0.658075 0.361267 -0.374596 39 50 36
0.286315 -0.460203 -0.362986 47 55 42
0.382253 0.703046 -0.372505 35 47 37
0.454207 0.241344 -0.365853 40 52 38
-0.628095 -0.742021 -0.372511 37 48 34
-0.010493 -0.757012 -0.376380 38 45 37
-0.550145 -0.136412 -0.382771 57 70 53
0.394246 -0.634091 -0.358041 44 52 39
0.292311 -0.523162 -0.376441 44 52 39
0.343278 -0.664072 -0.402542 44 52 39
-0.232350 0.655077 -0.398533 30 42 32
-0.772002 -0.493182 -0.384106 49 62 45
-0.763008 -0.640087 -0.381172 72 85 66
-0.574130 0.136412 -0.408962 255 255 255
0.499178 -0.370261 -0.393789 50 62 48
-0.100435 -0.346277 -0.395297 42 51 41
0.445213 0.490184 -0.378259 39 41 40
-0.061460 -0.193375 -0.388097 56 69 52
0.673066 0.355271 -0.365462 38 50 36
-0.490184 -0.580126 -0.353771 50 62 46
-0.202369 0.211364 -0.385746 44 51 43
0.343278 -0.751015 -0.387128 41 49 36
0.523162 0.478191 -0.383284 37 49 35
-0.742021 0.427224 -0.406915 37 49 35
0.538153 -0.094439 -0.379051 59 72 55
-0.151402 0.514168 -0.358158 36 47 38
0.004497 0.400242 -0.380596 37 49 35
-0.661074 0.292311 -0.352218 41 49 36
-0.343279 0.520164 -0.373456 35 46 37
0.658075 -0.139410 -0.372210 67 80 62
-0.547147 0.139410 -0.383341 255 255 255
-0.058462 -0.727031 -0.372169 43 51 38
-0.724033 0.448211 -0.375499 37 49 35
0.193375 0.463201 -0.380593 41 49 36
-0.406238 -0.211364 -0.385999 55 69 52
0.598114 -0.469197 -0.350436 48 60 46
0.604110 -0.298308 -0.394674 55 68 51
-0.157398 0.544149 -0.367299 37 44 36
0.007495 -0.658075 -0.359484 43 51 38
-0.157398 -0.070455 -0.415474 58 72 55
0.052466 -0.022485 -0.372998 70 83 65
-0.274323 0.775000 -0.375055 33 45 35
-0.010493 0.031480 -0.406277 91 105 86
-0.304304 0.229352 -0.403466 49 53 45
-0.760010 -0.520164 -0.355582 47 60 43
0.541151 -0.412234 -0.420472 49 61 47
0.649081 0.205368 -0.358186 38 46 32
0.235348 0.511170 -0.379880 37 49 39
-0.103433 -0.253337 -0.356960 50 62 48
0.469197 -0.451209 -0.395031 48 56 43
-0.070455 -0.718037 -0.410272 46 54 41
0.562137 0.445213 -0.391653 36 48 34
-0.361267 -0.016489 -0.374044 58 71 54
-0.034478 0.094439 -0.399319 74 89 70
0.001499 -0.409236 -0.358066 45 51 39
-0.490184 -0.175387 -0.374805 52 58 44
0.316296 0.616103 -0.396423 33 45 31
-0.064458 0.577128 -0.389172 37 49 35
-0.175387 0.169391 -0.377966 44 51 43
-0.190377 0.586122 -0.398119 29 35 26
0.343278 0.733027 -0.395596 36 48 38
-0.463201 -0.508172 -0.387734 45 56 40
-0.556141 -0.037476 -0.374086 58 72 55
0.343278 -0.763008 -0.391457 43 51 38
0.718037 0.118424 -0.371964 44 51 43
0.505174 -0.043472 -0.401883 45 58 41
-0.502176 -0.478192 -0.347411 48 60 46
0.484188 -0.715039 -0.386312 43 51 38
-0.202369 0.631093 -0.365697 11 12 12
0.556141 -0.553143 -0.381786 53 66 49
0.556141 -0.262331 -0.398428 56 69 52
0.454207 0.130416 -0.382578 39 46 38
-0.316296 -0.697050 -0.381243 44 52 39
-0.574130 0.253337 -0.356789 44 51 43
0.418230 0.457205 -0.388304 38 50 36
0.607108 0.388250 -0.367685 39 51 37
-0.514168 -0.754013 -0.375391 41 49 36
-0.046470 0.208366 -0.363907 41 48 40
-0.598114 0.151402 -0.363835 255 255 255
0.568133 0.445213 -0.401723 36 48 34
-0.706044 0.514168 -0.403880 36 48 38
-0.151402 -0.025484 -0.382096 65 80 61
-0.376257 -0.703046 -0.375060 42 49 41
-0.100435 -0.766006 -0.373670 39 47 34
0.355271 -0.421228 -0.346576 41 47 35
0.628095 0.019487 -0.379672 255 255 255
0.349275 0.559139 -0.378375 39 47 34
-0.142408 -0.481190 -0.378570 47 55 42
-0.130416 0.403240 -0.368015 36 48 34
0.259333 -0.760010 -0.357481 40 47 39
-0.574130 -0.682060 -0.379455 44 52 39
-0.550145 0.649081 -0.392669 35 47 37
-0.064458 0.397244 -0.362225 36 48 34
0.535155 -0.316296 -0.392941 52 65 48
-0.214362 0.577128 -0.385475 29 41 27
-0.304304 0.403240 -0.363366 43 54 40
-0.709043 0.742021 -0.348966 34 44 35
0.217360 -0.559139 -0.406565 46 54 41
-0.286315 -0.031480 -0.368475 68 81 62
0.040474 0.511170 -0.372370 37 49 35
0.013491 0.043472 -0.400601 71 84 66
0.250338 0.313298 -0.389349 40 52 38
0.484188 0.343279 -0.403127 40 52 38
-0.580126 -0.031480 -0.371655 62 77 58
0.022485 -0.487186 -0.377420 44 50 38
0.607108 -0.037476 -0.381254 71 84 66
0.403240 0.397244 -0.384561 43 51 38
-0.463201 -0.667070 -0.398495 41 49 36
-0.544149 -0.124420 -0.397221 57 70 53
0.238346 0.607108 -0.355533 33 40 32
-0.340280 0.118424 -0.394845 44 50 43
0.211364 0.340280 -0.370016 43 51 38
0.661073 0.223356 -0.385744 46 54 41
0.622099 -0.013491 -0.382104 77 88 68
0.046470 0.409236 -0.391646 37 49 35
-0.739023 -0.115426 -0.390766 69 84 66
-0.079449 -0.241344 -0.362017 50 63 47
-0.277321 -0.670068 -0.368979 42 50 37
-0.175387 0.469197 -0.368156 36 48 34
-0.760010 -0.397244 -0.372075 50 62 48
-0.034478 0.424226 -0.378408 36 48 34
0.142408 -0.274323 -0.379231 65 78 58
-0.205368 0.031480 -0.381175 75 88 70
-0.202369 -0.496180 -0.391911 45 53 39
0.043472 -0.568133 -0.354783 42 50 37
0.643085 0.193375 -0.374066 42 54 40
0.616103 -0.640087 -0.382268 45 53 40
0.766006 -0.454207 -0.378346 49 61 47
-0.526161 -0.631093 -0.377158 44 52 39
-0.142408 0.532157 -0.400289 35 47 37
-0.595116 -0.703046 -0.366969 43 51 38
0.589120 0.382253 -0.391393 38 50 36
0.172389 -0.277321 -0.403774 47 56 43
-0.286315 -0.361267 -0.394768 57 65 50
-0.712041 0.259333 -0.397818 37 49 35
0.286315 -0.442215 -0.396162 45 53 41
-0.628095 -0.724033 -0.389935 41 48 41
-0.475193 0.775000 -0.387429 41 53 43
-0.199371 0.067456 -0.380711 76 93 70
-0.490184 0.313298 -0.385109 40 52 38
-0.328288 0.232350 -0.376308 46 53 45
0.382253 -0.637089 -0.395838 44 52 39
0.205368 0.598114 -0.375307 81 83 79
-0.490184 0.040474 -0.374365 72 85 68
0.727031 -0.751015 -0.370872 49 60 44
-0.700048 0.625097 -0.377233 36 48 38
-0.730029 -0.085445 -0.386522 62 76 59
-0.127418 -0.157398 -0.391570 54 68 51
0.655077 -0.112427 -0.388589 68 81 64
-0.070455 -0.508172 -0.379686 45 53 40
-0.292311 -0.382253 -0.373864 48 56 43
0.193375 0.685058 -0.365892 37 42 35
-0.628095 0.121422 -0.402275 29 33 28
-0.517166 -0.556141 -0.391012 47 55 42
-0.463201 -0.724033 -0.376918 43 51 38
0.121422 -0.664072 -0.379721 45 51 39
-0.394246 -0.439217 -0.375939 44 53 40
-0.478191 0.427224 -0.387215 43 51 39
-0.043472 0.535155 -0.396462 37 49 35
-0.466199 -0.511170 -0.405477 45 57 40
-0.643085 0.157398 -0.353358 36 41 35
0.685058 -0.715039 -0.375294 52 64 49
-0.670068 -0.067457 -0.385076 60 74 55
-0.463201 0.628095 -0.371858 36 48 38
-0.091441 -0.196373 -0.384841 56 69 52
0.541151 -0.745019 -0.369550 34 41 33
0.637089 -0.085445 -0.374655 75 88 70
0.565135 -0.322292 -0.382206 52 65 48
-0.202369 0.373259 -0.366130 41 49 36
0.394246 -0.586122 -0.383271 44 52 39
-0.763008 -0.142408 -0.362950 55 69 52
0.196373 0.733027 -0.405824 34 46 36
0.733027 -0.610106 -0.385142 47 55 42
-0.751015 -0.346277 -0.376738 47 59 44
-0.088443 0.301306 -0.363891 43 50 42
0.061460 0.193375 -0.377182 255 255 255
-0.208366 -0.478192 -0.393773 46 54 41
-0.655077 0.733027 -0.385149 29 39 30
-0.745019 0.487186 -0.384973 36 48 34
-0.337282 -0.397244 -0.388788 47 55 42
-0.037476 0.019487 -0.380949 66 79 61
-0.025484 0.538153 -0.376625 36 48 34
0.580126 0.223356 -0.380453 43 51 39
0.295309 0.748017 -0.389870 35 47 37
0.079449 0.541151 -0.373479 37 49 35
0.208366 -0.319294 -0.367793 45 53 40
-0.166393 0.292311 -0.400715 44 52 39
0.055464 0.499178 -0.372130 37 49 40
-0.514168 0.529159 -0.377200 35 47 37
0.019487 0.604110 -0.372959 38 47 34
0.034478 0.748017 -0.388737 34 46 36
0.604110 0.004497 -0.363668 50 56 51
-0.508172 -0.340280 -0.406818 44 56 42
-0.415232 0.628095 -0.381977 31 43 33
0.100435 -0.712041 -0.388153 37 45 32
0.526161 0.592118 -0.387440 34 46 36
-0.163395 0.427224 -0.398590 38 47 34
0.568133 -0.712041 -0.372459 56 69 52
0.430222 0.364265 -0.394407 40 52 38
-0.580126 0.739023 -0.392852 31 43 33
-0.037476 -0.745019 -0.380915 39 47 34
-0.658075 -0.721035 -0.382798 40 48 35
-0.460203 0.607108 -0.367485 36 48 38
-0.196373 0.331286 -0.353171 43 51 38
-0.070455 0.661074 -0.347949 35 47 37
-0.640087 -0.187379 -0.403719 59 73 55
-0.004497 -0.412234 -0.385394 45 51 39
-0.439217 0.214362 -0.383110 44 49 43
0.550145 -0.265329 -0.387774 56 69 54
-0.622099 -0.523162 -0.398438 48 56 43
0.355271 0.697050 -0.365631 35 47 37
-0.694052 0.589120 -0.371796 36 48 38
0.493182 -0.211364 -0.390378 53 68 51
0.499178 0.502176 -0.379477 35 47 33
-0.625097 -0.187379 -0.379519 58 72 54
-0.259333 -0.208366 -0.369345 55 68 51
-0.724033 0.619101 -0.359843 35 47 37
0.553143 -0.214362 -0.381947 67 82 64
0.706044 0.403240 -0.370740 38 50 36
0.538153 0.481190 -0.382404 36 48 34
0.517166 0.697050 -0.390455 33 45 35
0.124420 -0.358269 -0.405632 41 47 35
0.505174 0.079449 -0.381135 43 50 42
0.739023 0.478191 -0.379368 38 50 36
0.649081 -0.691054 -0.353975 45 53 40
-0.031480 -0.604110 -0.372944 45 53 40
-0.769004 -0.220358 -0.383973 66 81 62
0.637089 0.670068 -0.365230 33 45 31
0.340280 0.499178 -0.398197 38 49 35
0.013491 0.022485 -0.384548 92 106 86
-0.493182 -0.007495 -0.383837 86 99 81
-0.586122 -0.622099 -0.389802 45 53 40
-0.034478 -0.748017 -0.373480 40 45 38
0.676064 -0.415232 -0.391419 59 72 53
0.586122 0.739023 -0.385290 30 42 32
-0.310300 0.271325 -0.398447 40 52 38
0.544149 0.619101 -0.386217 31 43 33
0.580126 0.523162 -0.387323 13 13 12
0.505174 -0.400242 -0.400978 52 60 47
-0.082447 0.526161 -0.401114 36 48 34
0.586122 -0.625097 -0.394407 46 54 41
-0.013491 -0.391248 -0.374048 47 53 41
-0.649081 0.622099 -0.355800 27 37 28
-0.688056 0.331286 -0.388626 38 50 36
-0.115426 -0.280319 -0.396820 48 56 43
-0.049468 0.019487 -0.379724 66 79 61
-0.403240 -0.658075 -0.368628 44 52 39
0.751015 -0.547147 -0.369285 51 62 48
-0.118424 0.565135 -0.405217 37 49 35
0.037476 -0.400242 -0.359615 45 51 39
-0.649081 -0.268327 -0.354599 48 60 46
-0.712041 0.061460 -0.380884 43 50 41
-0.010493 0.586122 -0.406885 36 48 38
0.319294 0.649081 -0.381192 33 45 31
0.409236 0.241344 -0.356715 43 51 38
-0.397244 -0.088443 -0.380433 52 65 48
0.046470 0.223356 -0.379971 238 233 225
0.622099 0.448211 -0.400538 32 41 32
-0.775000 -0.631093 -0.392367 49 62 44
-0.400242 -0.601112 -0.374898 45 53 40
-0.097437 0.181383 -0.360116 45 52 42
0.703046 -0.682060 -0.372586 46 54 41
-0.043472 0.304304 -0.363103 37 49 35
-0.160397 -0.100435 -0.378564 58 72 55
-0.118424 0.625097 -0.364551 35 47 33
0.382253 0.286315 -0.366406 38 50 36
